# .PCD v0.7 - Point Cloud Data file format
VERSION 0.7
FIELDS x y z normal_x normal_y normal_z curvature
SIZE 4 4 4 4 4 4 4
TYPE F F F F F F F
COUNT 1 1 1 1 1 1 1
WIDTH 589
HEIGHT 1
VIEWPOINT 0 0 0 1 0 0 0
POINTS 589
DATA ascii
-0.20357127 0.0049921358 0.7828964 0.58611917 -0.3047567 0.75077564 0.0041032531
-0.1985849 0.0058313441 0.77971464 0.58899277 -0.30645856 0.74786127 0.0040992387
0.11987031 0.0054207197 0.77948725 0.76345474 0.3345404 -0.55308521 0.024446664
0.12343968 0.0055441246 0.78499699 0.75377828 0.36846638 -0.54490447 0.014840604
-0.34255585 0.0056096287 0.78136247 0.20586394 -0.80538285 -0.5558663 0.0026317921
-0.33485836 0.0059141316 0.78359717 0.21498388 -0.8160435 -0.53653544 0.0032054631
-0.32591888 0.006120116 0.78698426 0.24218038 -0.83363163 -0.49640459 0.0035352688
-0.31565458 0.0078804949 0.78951806 0.24878839 -0.84711581 -0.46958667 0.0034255653
-0.21082529 0.0062069637 0.78882235 0.5978905 -0.27484998 0.75308526 0.010659103
-0.204326 0.0059157228 0.78371656 0.58750248 -0.30173612 0.75090134 0.0040841568
0.11981802 0.006658806 0.78064126 0.76052892 0.36335862 -0.53876173 0.017731003
0.12271962 0.0067329328 0.7852478 0.75119454 0.38825747 -0.53419328 0.0091628674
-0.34160143 0.006795289 0.78014213 0.20396817 -0.79943413 -0.56507069 0.0023122053
-0.33512101 0.0068681738 0.78215402 0.21092512 -0.81010097 -0.54704416 0.0028724619
-0.32490507 0.0071979719 0.78577775 0.23995106 -0.8284862 -0.50599921 0.0035812126
-0.31488577 0.0086018639 0.78871828 0.24695075 -0.84508014 -0.47419983 0.0034787005
-0.31019369 0.0095105805 0.78993547 0.23924109 -0.85013878 -0.46907622 0.003017589
-0.21055652 0.007416219 0.78919858 0.59401703 -0.26377648 0.7602933 0.015451157
-0.20401393 0.007123129 0.7839905 0.58531743 -0.29956642 0.7534582 0.0043207845
0.11911996 0.00784095 0.78083932 0.75590748 0.38794062 -0.52780885 0.010708284
0.12220459 0.0079781031 0.78572911 0.74920899 0.40355778 -0.52543795 0.0054138559
-0.34013283 0.0074868887 0.77972353 0.20368397 -0.79823577 -0.56687188 0.0022126208
-0.33474386 0.0076292749 0.78123909 0.20956798 -0.80582392 -0.55389202 0.002699855
-0.32476074 0.0081680613 0.7843436 0.23562336 -0.82172799 -0.51898211 0.0033570018
-0.31482139 0.0093807764 0.78749245 0.2442413 -0.84144998 -0.48200268 0.0033775624
-0.30960691 0.0098394575 0.78964025 0.23811164 -0.84977603 -0.47030273 0.0029945739
-0.2103945 0.0082271341 0.78941852 0.59266716 -0.25885096 0.76303655 0.016705763
-0.20458359 0.0079859374 0.78472757 0.58581978 -0.29600564 0.75446367 0.0048309076
0.11876966 0.0085302917 0.78108615 0.75374812 0.39982572 -0.52182829 0.0068594846
0.12200666 0.0087219365 0.78624207 0.74799806 0.41415444 -0.51875651 0.0029565331
-0.33510053 0.0084507642 0.78004706 0.20511571 -0.8022216 -0.56070185 0.0024104812
-0.32500255 0.0091133239 0.78282911 0.23191276 -0.81457061 -0.53172374 0.0031145616
-0.31520903 0.0099606579 0.78633922 0.24146284 -0.83762938 -0.49001691 0.0034290175
-0.30917114 0.010553282 0.78856415 0.23614843 -0.84738636 -0.47558814 0.0028372665
-0.21020339 0.0090537844 0.78969687 0.58984035 -0.24849701 0.76887941 0.021881165
-0.20489761 0.0087664044 0.78528959 0.58558071 -0.2939139 0.75546914 0.0056678364
0.11886774 0.0093734208 0.78212446 0.75091541 0.4088231 -0.51884288 0.0048307846
0.1219464 0.009509434 0.78702283 0.74541295 0.42219305 -0.51592267 0.0015137088
-0.33308595 0.0094388239 0.77938759 0.20771267 -0.80025983 -0.56254208 0.0021904749
-0.32483876 0.010209641 0.7813859 0.22727081 -0.81040567 -0.53999138 0.0028905927
-0.31524593 0.010525864 0.78539717 0.23968975 -0.83457285 -0.49604291 0.0034065419
-0.30814111 0.011072531 0.78820515 0.23542133 -0.84706461 -0.47651806 0.0027591437
-0.21048471 0.0098979333 0.79040104 0.58608907 -0.23077129 0.77758056 0.031891581
-0.20509861 0.009552341 0.78597635 0.58075905 -0.2796177 0.76467478 0.011369814
0.11833797 0.010180817 0.78219181 0.74973351 0.41604054 -0.5147267 0.0030177759
0.12143368 0.010334269 0.78707665 0.74455285 0.42548868 -0.51442981 0.0011743313
-0.32260525 0.011094644 0.78119153 0.22365725 -0.812868 -0.53780013 0.0028916812
-0.31488481 0.011198995 0.78451991 0.23650749 -0.83276236 -0.50059545 0.0033290635
-0.30712989 0.011554684 0.78790689 0.23416066 -0.84623867 -0.47860691 0.0026577255
-0.20979992 0.010717273 0.79032922 0.58012784 -0.22673999 0.78326762 0.031884197
-0.20456919 0.010277083 0.78608537 0.57703429 -0.27086085 0.77085882 0.014157096
0.11841293 0.011009659 0.78324264 0.74744588 0.42538801 -0.5103054 0.0013293246
0.12155415 0.011196996 0.78810018 0.74283278 0.42886126 -0.51409531 0.00089895073
-0.32099214 0.012111785 0.7804094 0.2211777 -0.81295288 -0.53869426 0.0026899569
-0.31525543 0.012230227 0.7827462 0.22952464 -0.82698596 -0.51332176 0.0034349523
-0.30639243 0.012282553 0.78694803 0.23195936 -0.84464079 -0.48251587 0.0026054538
-0.20989464 0.01161645 0.79103345 0.56653076 -0.20782945 0.79849213 0.039745126
-0.20323935 0.011609254 0.78575206 0.57252842 -0.266725 0.7757414 0.014320522
0.11724523 0.012178282 0.7827099 0.74781024 0.42970988 -0.50611401 0.00090208481
0.12041511 0.01198373 0.78717989 0.74215251 0.43200254 -0.51243812 0.0007478125
-0.31417197 0.013279334 0.78168195 0.22490181 -0.82541579 -0.51786226 0.0031978325
-0.30449486 0.01341962 0.78609914 0.22667678 -0.84360564 -0.48681012 0.002654219
-0.29760897 0.014103292 0.78812653 0.20627813 -0.84654826 -0.49072346 0.0026453433
-0.20905085 0.012851914 0.79099643 0.56375778 -0.19904731 0.80254471 0.039322942
-0.20367503 0.013121394 0.78683585 0.57113874 -0.25015298 0.78245813 0.017827107
-0.19746202 0.013183672 0.78183037 0.58879513 -0.29018089 0.75441647 0.004496905
0.11687988 0.013461329 0.78339875 0.746782 0.43320143 -0.5046435 0.00067469379
0.12038076 0.013132882 0.78820992 0.74090981 0.43376723 -0.51274109 0.00060865277
-0.31347364 0.013943675 0.78100896 0.2216904 -0.82648051 -0.51754695 0.0031264173
-0.30559772 0.014242146 0.7840746 0.22997786 -0.83990192 -0.49164069 0.0023992066
-0.29579854 0.015397416 0.78669941 0.20440212 -0.84421885 -0.49549767 0.0024280427
-0.20315853 0.01429179 0.78703952 0.56690735 -0.24102601 0.78842258 0.020543879
-0.19678661 0.014447489 0.78191388 0.58848232 -0.28371793 0.75712949 0.0056040101
0.11702242 0.014337815 0.78440577 0.74535275 0.43440717 -0.50571454 0.00060730008
0.12018745 0.014567954 0.78925043 0.73922032 0.43433589 -0.51469553 0.00058482442
-0.31238967 0.014621377 0.78045493 0.21863201 -0.82752371 -0.51715976 0.0029417828
-0.30526054 0.014922012 0.78322166 0.22827262 -0.83867079 -0.49450919 0.0022472078
-0.29486525 0.016422022 0.78535736 0.2056731 -0.84385538 -0.49559101 0.0023247544
-0.2887724 0.015473949 0.7888971 0.20266986 -0.8449744 -0.4949525 0.002430493
-0.20332317 0.015312969 0.78765553 0.56118453 -0.22792938 0.79626554 0.024017934
-0.19632976 0.015455268 0.78200197 0.58789873 -0.28037947 0.75883842 0.0062294248
0.11610194 0.015204627 0.78389043 0.74715722 0.4342941 -0.50314599 0.00062161416
-0.31136137 0.015153101 0.78005636 0.21870859 -0.82831168 -0.5158298 0.0027505402
-0.30486509 0.015614085 0.78221315 0.22604276 -0.83817178 -0.49637559 0.0023008939
-0.29468185 0.017454542 0.78369981 0.20668679 -0.84258968 -0.497318 0.0023153622
-0.28499198 0.016597427 0.78805757 0.20876439 -0.84376866 -0.49448386 0.002798924
-0.2756817 0.017913703 0.78968966 0.24016786 -0.84347445 -0.48050722 0.0026547837
-0.20339546 0.016307224 0.78820747 0.55646485 -0.21464339 0.80319011 0.027424833
-0.19635817 0.016442338 0.78258777 0.58374763 -0.26910618 0.76620358 0.0086892806
0.11541196 0.016170679 0.78377211 0.7481094 0.43380409 -0.50215077 0.00062844343
-0.31026891 0.015827183 0.77948463 0.21737267 -0.82938969 -0.5146566 0.0026851529
-0.30488113 0.016262863 0.78115678 0.22345364 -0.83751678 -0.49864939 0.0022722268
-0.29497701 0.018304689 0.78217393 0.20747361 -0.8421241 -0.49778357 0.002332587
-0.28536752 0.017363703 0.78670627 0.20732801 -0.84251976 -0.49721944 0.0026209133
-0.27529931 0.018624574 0.78862894 0.23995544 -0.84230322 -0.48268783 0.002666675
-0.27026847 0.019390555 0.79011744 0.26026094 -0.84155422 -0.47334933 0.0024811861
-0.20225857 0.017475752 0.78781968 0.55788797 -0.21255568 0.80255061 0.02521643
-0.19614205 0.017507037 0.78289288 0.58305657 -0.26406229 0.7685042 0.0095301047
0.11539115 0.017204704 0.78467464 0.74798435 0.43281108 -0.50319606 0.00062977133
-0.30418548 0.017279459 0.77984351 0.22092494 -0.83651501 -0.50144547 0.0022230588
-0.29414877 0.019109875 0.78111893 0.2082914 -0.84074616 -0.49976903 0.0022596316
-0.28626329 0.018650947 0.78452826 0.20022117 -0.84114766 -0.50239176 0.002055896
-0.27534589 0.019241478 0.78757966 0.23720983 -0.84214705 -0.48435825 0.0026703258
-0.26953286 0.020106738 0.78929245 0.26126811 -0.84105206 -0.47369289 0.0024607219
-0.19568406 0.01872097 0.78302377 0.58296293 -0.25987759 0.76997346 0.009771334
0.11434764 0.018336367 0.78415793 0.74919176 0.43214729 -0.5019657 0.00063067017
-0.28452098 0.019258048 0.78397977 0.2072493 -0.84070951 -0.50033253 0.002502226
-0.27528158 0.020055659 0.78627729 0.23506258 -0.8417244 -0.48614398 0.0027605153
-0.26823586 0.021266662 0.78806198 0.26556176 -0.83956885 -0.47395152 0.0024602609
-0.19594188 0.01979637 0.7839449 0.57339716 -0.23700163 0.78456467 0.017050548
0.11424344 0.019606454 0.78514552 0.74911851 0.43030447 -0.50365645 0.00063972996
-0.28386512 0.020353818 0.78260696 0.20716558 -0.8394689 -0.50240427 0.0024306227
-0.27482516 0.020905364 0.78507769 0.23575377 -0.84036869 -0.48815483 0.0027863532
-0.26665559 0.021885419 0.78794152 0.27119002 -0.83753121 -0.47435606 0.0024033037
-0.19569698 0.020909782 0.78429973 0.5699811 -0.22215889 0.79129636 0.019613823
0.11039522 0.020974224 0.78063852 0.75854927 0.42748934 -0.49179813 0.00065408525
0.11416899 0.020747671 0.7860561 0.74877739 0.42801148 -0.50611222 0.00066989358
-0.28283486 0.020775491 0.78220195 0.21117599 -0.83994353 -0.49997637 0.0024440214
-0.27458683 0.021343386 0.78450447 0.23752467 -0.8393476 -0.48902223 0.0027028027
-0.26621598 0.0221834 0.78766984 0.27126563 -0.83789539 -0.47367039 0.0024814794
-0.19425784 0.02171653 0.78356588 0.56872976 -0.21752772 0.79348779 0.020215476
0.10991003 0.021805316 0.78067434 0.75932872 0.42681989 -0.49117747 0.00067873421
0.11321212 0.021719342 0.78551948 0.75022727 0.42592627 -0.5057264 0.00069090491
-0.28248259 0.021562945 0.78121519 0.20879097 -0.83900464 -0.50251091 0.002275994
-0.27467671 0.021896284 0.78359276 0.23648904 -0.83912069 -0.48990253 0.0027289991
-0.26558873 0.022583332 0.78728187 0.27169463 -0.83790314 -0.47341418 0.0024684151
-0.19401155 0.022520445 0.78379238 0.56406164 -0.20210917 0.8008998 0.024235412
0.10942265 0.022634987 0.78071129 0.75997901 0.42552915 -0.49129143 0.00070851948
0.1130113 0.022683948 0.78607398 0.74997395 0.42427549 -0.50748658 0.00073371589
-0.28175133 0.022242106 0.78040516 0.21045484 -0.83808696 -0.5033651 0.0022563182
-0.27473018 0.022547692 0.7825585 0.23650317 -0.83770388 -0.4923009 0.002582127
-0.26489159 0.023212556 0.78659785 0.27286515 -0.83674246 -0.47478506 0.0024353822
-0.19513072 0.023492426 0.78508413 0.55481589 -0.17587873 0.81321841 0.028328383
0.10915238 0.023561157 0.78115106 0.76057488 0.42358881 -0.49205065 0.00076502044
0.11233041 0.023435382 0.78574818 0.75157499 0.42296827 -0.50621015 0.00076966779
-0.2810275 0.022887778 0.77962261 0.21291746 -0.83700687 -0.50414497 0.002305998
-0.27485326 0.02361168 0.78082329 0.23441881 -0.83447206 -0.49876904 0.0025915226
-0.26491836 0.023852682 0.78546315 0.27275926 -0.83479691 -0.47825915 0.0024379424
-0.25866678 0.024532842 0.78860658 0.29156336 -0.8353138 -0.46615154 0.0020271009
-0.19315928 0.024287283 0.78399682 0.55222899 -0.17303471 0.81573373 0.030955087
0.10803274 0.024703361 0.78050536 0.76308268 0.4221845 -0.4893606 0.00086180755
0.11193964 0.024317639 0.78593743 0.75187176 0.42151237 -0.5069834 0.00079882744
-0.27127475 0.024797896 0.78060579 0.24881218 -0.83137041 -0.49694437 0.0024521956
-0.26511028 0.024897102 0.78353775 0.27210784 -0.83259219 -0.48244858 0.0025428371
-0.25778267 0.025452433 0.78754359 0.29345903 -0.83468354 -0.46609044 0.0020338253
-0.192947 0.025325609 0.78429514 0.54766983 -0.15777858 0.82179946 0.032467823
0.10848258 0.025770849 0.78212082 0.7612052 0.42022339 -0.49395615 0.00085437833
0.11156881 0.025287926 0.78623098 0.75179517 0.41990066 -0.50843149 0.0008482936
-0.26408896 0.026195329 0.78176498 0.27188805 -0.83009303 -0.48686323 0.0025892388
-0.25546843 0.026683817 0.78707671 0.29690382 -0.83361691 -0.46581098 0.0020378244
-0.19406272 0.026559394 0.78550905 0.53651202 -0.11999992 0.83553261 0.034884088
0.10816101 0.026885308 0.78259701 0.7619521 0.41780546 -0.49486315 0.00088018447
0.11181815 0.026360219 0.78748101 0.75020951 0.41748989 -0.51273823 0.00087284076
-0.26295322 0.027056266 0.780945 0.27492422 -0.8281402 -0.48848662 0.0025808658
-0.25497341 0.027679188 0.78540736 0.29559621 -0.83238161 -0.4688665 0.0021560588
-0.24931298 0.028218566 0.78921878 0.2868154 -0.83169842 -0.4755089 0.0027762214
-0.19370811 0.027679253 0.78564328 0.53000593 -0.094465733 0.84331524 0.037962653
-0.18884377 0.027226066 0.78164947 0.55976987 -0.15803406 0.81360763 0.033377994
0.10788343 0.027814781 0.78298682 0.76213449 0.41667345 -0.49553388 0.00091546349
0.11150069 0.027700666 0.78813243 0.75062472 0.41475287 -0.51434654 0.00088917976
-0.26145688 0.027943395 0.78032374 0.27695039 -0.82721817 -0.48889324 0.0025982135
-0.25491354 0.028410634 0.78393042 0.29583657 -0.83073157 -0.47164592 0.0023361773
-0.24818957 0.029092625 0.78840518 0.28681648 -0.83176774 -0.47539413 0.0028931536
-0.19295736 0.028489936 0.78536111 0.52643681 -0.078905165 0.84735864 0.040377196
-0.18814158 0.028142681 0.78142107 0.55874854 -0.14481713 0.81672877 0.036053784
0.10777681 0.028605772 0.78349262 0.76208359 0.41538617 -0.49668768 0.00091299851
0.11102742 0.028549736 0.78815812 0.75075299 0.41391778 -0.51483488 0.00092042238
-0.25447696 0.029261388 0.78256679 0.29435748 -0.83006018 -0.47376612 0.0024932271
-0.24708571 0.029871427 0.78769952 0.28548688 -0.83221024 -0.47542748 0.0028489472
-0.19253263 0.029361645 0.78530174 0.52138293 -0.062435374 0.85247523 0.041193433
-0.18799464 0.029081594 0.7816965 0.55236226 -0.12399391 0.82443535 0.038566347
0.10726567 0.029430665 0.78343654 0.76294667 0.41416016 -0.49638388 0.00094853906
0.11101296 0.029610749 0.78896707 0.75020975 0.41244489 -0.51679647 0.00090587919
-0.25361761 0.030018769 0.78185296 0.29306698 -0.82975364 -0.47510439 0.0025002863
-0.24634258 0.030599844 0.78677249 0.28615084 -0.83236718 -0.47470841 0.0026043218
-0.1929675 0.030311612 0.78600818 0.50461948 -0.020654386 0.86566365 0.048508342
-0.18786025 0.030014778 0.78193456 0.54826105 -0.10651212 0.82962888 0.040670514
0.10733964 0.030306147 0.78429568 0.76205784 0.41234556 -0.49925441 0.00099719164
0.11073412 0.030329332 0.78915888 0.75029373 0.41103697 -0.51779318 0.00096241833
-0.25219154 0.031087713 0.78091735 0.29136738 -0.8295579 -0.4765054 0.0024781679
-0.24584959 0.031549286 0.78528661 0.29279876 -0.8313967 -0.47235653 0.0021553012
-0.23932607 0.031955779 0.78945392 0.23282035 -0.81451219 -0.53432423 0.017227098
-0.19266663 0.03132689 0.7860797 0.48955837 0.013908283 0.87573886 0.053788058
-0.18793087 0.031446468 0.78243405 0.5364567 -0.06624645 0.84191638 0.044437289
0.10610902 0.031447802 0.78334963 0.76555169 0.41093975 -0.49504024 0.00099338091
0.11006778 0.031312138 0.78901798 0.75105476 0.41070119 -0.51695591 0.0010225438
-0.25053641 0.032362457 0.77980757 0.28890768 -0.82937604 -0.47827858 0.0022421547
-0.24431427 0.032645557 0.7842474 0.28941432 -0.83132702 -0.4745065 0.0020426679
-0.23831584 0.032957494 0.78811747 0.23901159 -0.81711185 -0.52624881 0.01402189
-0.19281793 0.032527559 0.78652513 0.4712705 0.054904077 0.88714236 0.055556465
-0.18691964 0.032704487 0.78208941 0.53094506 -0.041571949 0.84690362 0.049563129
0.10658257 0.032536149 0.78499067 0.76217443 0.40961805 -0.50131494 0.0010883991
-0.24446884 0.033465527 0.78238916 0.29141468 -0.83221447 -0.47172213 0.0017072003
-0.2351355 0.034238994 0.78826636 0.21350075 -0.8080641 -0.55563051 0.030846028
-0.22973023 0.034780998 0.78979647 0.15352006 -0.76321161 -0.63190633 0.053587615
-0.19270092 0.033693276 0.78671664 0.45156223 0.10610186 0.89478052 0.06308803
-0.18670584 0.03360128 0.78216612 0.52271837 -0.022967128 0.8532908 0.05047119
0.10688879 0.033585083 0.78627199 0.75972599 0.40843019 -0.50596762 0.0010980647
-0.24367198 0.034360703 0.78116107 0.28968307 -0.83125973 -0.47446319 0.0016291022
-0.23533583 0.035054129 0.78633296 0.23720087 -0.81540334 -0.52989113 0.015693566
-0.22709855 0.035772558 0.78997666 -0.15469599 0.75707209 0.64409107 0.057267953
-0.19237949 0.03470587 0.78667802 0.43328637 0.14058004 0.90057939 0.067221202
-0.186783 0.03448052 0.78231966 0.51411492 0.0071659638 0.86015111 0.051233884
0.10497271 0.034535982 0.78406537 0.76751691 0.4071441 -0.49513865 0.0010371376
-0.24184045 0.035270292 0.78077698 0.29001784 -0.83130157 -0.47416815 0.0014500797
-0.2354039 0.035606895 0.78514522 0.25106055 -0.82023823 -0.51493269 0.010210048
-0.22590132 0.036881946 0.78908849 -0.16208895 0.75775027 0.64376742 0.059864465
-0.19289763 0.035615291 0.78735405 0.41247028 0.18292555 0.90006775 0.074343637
-0.18655363 0.035374925 0.78245753 0.50654334 0.027382301 0.86414641 0.052461348
0.10512824 0.035458125 0.785052 0.76534593 0.40619168 -0.4992654 0.0011540028
-0.24041416 0.03599757 0.78040773 0.28954443 -0.8312372 -0.47456947 0.001405695
-0.23537399 0.036229193 0.78390199 0.26100329 -0.82246184 -0.50592601 0.0076309522
-0.22489296 0.03761724 0.78852361 0.16333553 -0.7569018 -0.6437977 0.058505174
-0.21914835 0.038110707 0.79094547 -0.064240053 0.68066519 0.73567241 0.076995119
-0.19257508 0.036467522 0.78718823 0.40227774 0.20150028 0.89989597 0.074508086
-0.18606086 0.036356103 0.78229481 0.49878728 0.051659856 0.867688 0.054513808
0.10436729 0.036390826 0.78454822 0.76712787 0.40621686 -0.49650541 0.001089889
-0.23483291 0.036957983 0.78284341 0.26625785 -0.82344061 -0.50130635 0.0057915696
-0.22505334 0.038292922 0.78728133 0.18204089 -0.76485103 -0.62682021 0.051281907
-0.21859038 0.038850445 0.79026812 -0.071979456 0.68718666 0.72864377 0.076934338
-0.19266401 0.037331332 0.78730398 0.39011568 0.22344065 0.89722645 0.076746382
-0.18601874 0.037397832 0.78230977 0.48249966 0.091534011 0.87578267 0.055626839
0.10354287 0.037460439 0.78408819 0.76959157 0.40512669 -0.49356505 0.0010096031
-0.2332301 0.037769429 0.78236121 0.26924807 -0.82039851 -0.50471342 0.0058894968
-0.22557709 0.039173484 0.78531355 0.20065123 -0.77847302 -0.59965467 0.039547473
-0.21804011 0.039519329 0.78949678 -0.079293333 0.69532448 0.71907121 0.072317116
-0.19319385 0.0381965 0.78750443 0.3643001 0.26907074 0.89733756 0.077799298
-0.18662761 0.038545307 0.78291172 0.45525575 0.14309745 0.88533193 0.058191609
0.10305914 0.038527027 0.78417498 0.77010667 0.40516034 -0.49273196 0.0010018818
-0.23229188 0.038843248 0.78092802 0.27560297 -0.82264256 -0.49741611 0.0038909803
-0.22396113 0.040349521 0.78445011 0.20573591 -0.78271067 -0.59236974 0.033587616
-0.21742475 0.040532071 0.78849357 -0.098662637 0.71482486 0.69940263 0.067702211
-0.19303901 0.039400917 0.78720301 0.34457302 0.30309668 0.89274323 0.079901241
-0.1868339 0.039605085 0.78308386 0.4290103 0.19057877 0.89088082 0.062568806
0.10295242 0.039650057 0.78487122 0.76965594 0.4047673 -0.4937593 0.0010310384
-0.23194683 0.039548647 0.77984524 0.28100947 -0.8248502 -0.49067044 0.0029704929
-0.22510411 0.040941931 0.78244346 0.23317492 -0.80120182 -0.55278659 0.016751859
-0.21539748 0.041498464 0.78833598 -0.082526818 0.71595532 0.70286763 0.064211532
-0.19562103 0.040672697 0.78817433 0.26136971 0.41991413 0.88367718 0.077465944
-0.18610342 0.040527064 0.78253669 0.42091706 0.21167405 0.89304936 0.062757649
0.10293632 0.040686391 0.78565431 0.76871884 0.40430504 -0.4956063 0.0011827833
-0.22328357 0.041851744 0.78211999 0.22684042 -0.80209231 -0.55449885 0.016118838
-0.21494302 0.042317525 0.78711081 -0.089065447 0.72672772 0.68852019 0.059605982
-0.20509116 0.042190984 0.78963941 0.09122923 0.57292873 0.81709582 0.075523473
-0.1954622 0.041627482 0.78762692 0.22989284 0.46894005 0.87844086 0.078411102
-0.18569389 0.041356437 0.78239465 0.4102383 0.22668909 0.8931132 0.061451681
0.09966094 0.041441508 0.78089494 0.78024101 0.40238306 -0.47897348 0.00094773271
0.10252734 0.041738138 0.78585494 0.76907587 0.40388235 -0.49538857 0.0012109684
-0.22187982 0.042583432 0.78175288 0.2250504 -0.80382961 -0.55289292 0.015289684
-0.21510214 0.043119125 0.78601968 -0.11542298 0.75018901 0.66207337 0.055107269
-0.20516889 0.043205947 0.78867662 0.059417136 0.61117363 0.79452431 0.074764602
-0.19527739 0.042500373 0.78720021 0.21790788 0.48544466 0.86859077 0.081232138
-0.18586446 0.042177234 0.78247172 0.38774377 0.26130837 0.89597309 0.060944572
-0.18027519 0.042132623 0.77884191 0.4494327 0.12428107 0.89204198 0.057024337
0.099247731 0.042312488 0.7808845 0.7803545 0.40216795 -0.47893828 0.00096160016
0.10209729 0.042607848 0.78585351 0.76955307 0.4041968 -0.49439099 0.0011203262
-0.22092894 0.043514371 0.78067946 0.22495815 -0.80892068 -0.5451324 0.013651792
-0.21597585 0.043944754 0.78373444 0.14478436 -0.76633662 -0.62973982 0.042157531
-0.2049191 0.04409967 0.78772348 0.043457229 0.63008481 0.77984875 0.072282501
-0.19511339 0.043362036 0.78672403 0.20232478 0.50574529 0.8591643 0.0820539
-0.18525869 0.043112587 0.78208584 0.37450823 0.28013295 0.89484406 0.064263783
-0.18009786 0.043513905 0.77904207 0.42145285 0.16433643 0.89855576 0.060378898
0.099228762 0.043516882 0.78188521 0.7796371 0.40319526 -0.47926149 0.00095985446
0.10225683 0.043547735 0.78683245 0.76786631 0.40511313 -0.49625862 0.0012845499
-0.21388961 0.044957157 0.78295958 0.13369262 -0.76850367 -0.63004708 0.04084434
-0.20562014 0.044947237 0.78617811 0.027596353 0.65475851 0.75622088 0.068380997
-0.1948145 0.044307768 0.78618675 0.19524905 0.51291591 0.84931231 0.082673073
-0.18579331 0.0441452 0.78224003 0.33801645 0.32951522 0.89330512 0.069573641
-0.17994528 0.044611804 0.77923298 0.40236336 0.19318907 0.89993227 0.063374147
0.099034414 0.044710029 0.78254652 0.77836174 0.40430266 -0.48036829 0.00097101519
0.10181507 0.044412855 0.786838 0.76812023 0.40565917 -0.49542531 0.0012497504
-0.21272103 0.046038959 0.78159845 0.13981017 -0.77690023 -0.61804122 0.039119884
-0.2047119 0.046020132 0.7850489 0.012757576 0.67501265 0.73960817 0.066142254
-0.19488744 0.045726672 0.78536099 0.18018721 0.52674234 0.83567524 0.084412068
-0.18649033 0.045255922 0.78227431 0.29152623 0.39473578 0.89019883 0.070444465
-0.18026172 0.04542366 0.77932501 0.37788755 0.23649174 0.90475696 0.063174076
0.098077327 0.045818698 0.78188646 0.77886277 0.40593573 -0.47819728 0.00099418173
0.10112666 0.045480836 0.78659296 0.76970547 0.40625006 -0.4924708 0.0011565026
-0.21132293 0.046631109 0.78109008 0.12864156 -0.77385354 -0.62241632 0.038660347
-0.20511048 0.046659678 0.7836383 -0.0073442608 0.69501048 0.71927583 0.058773939
-0.1947118 0.04695062 0.78439909 0.16269198 0.54673117 0.82372266 0.082072094
-0.18573193 0.046229873 0.78174651 0.28128353 0.40574318 0.88715869 0.071395934
-0.17973043 0.046250805 0.77899265 0.36344704 0.25315669 0.90744025 0.06273675
0.098335557 0.046809718 0.78316224 0.77682817 0.40743926 -0.48019001 0.0010064447
0.10101887 0.046618849 0.78733432 0.76850784 0.40827599 -0.49268427 0.0011652521
-0.21030587 0.047295712 0.78044498 0.12825313 -0.77643931 -0.61919397 0.037496295
-0.20484811 0.047427766 0.78260201 -0.023303654 0.70949984 0.70480162 0.057196233
-0.19437802 0.047894262 0.78344184 0.14716209 0.56192756 0.81593543 0.080384247
-0.18547909 0.047089078 0.78148669 0.26653171 0.41756776 0.88206339 0.073321588
-0.17970665 0.047054086 0.77898562 0.34458622 0.27875724 0.90706563 0.064682283
0.098344751 0.047676165 0.78387594 0.77508932 0.40912023 -0.4815442 0.0010021196
0.10116963 0.047562338 0.78831708 0.76613325 0.41104043 -0.49405402 0.001328907
-0.2050065 0.048176844 0.7815218 -0.053387102 0.73234308 0.68059957 0.053129703
-0.19514035 0.048686676 0.78265744 0.12796675 0.57894582 0.80537355 0.073863
-0.18579303 0.047922466 0.78129172 0.23775244 0.45224032 0.87460262 0.076401182
-0.18001346 0.047903225 0.77895004 0.31317505 0.32796955 0.90859032 0.066695072
0.097698517 0.048430193 0.7834717 0.77581698 0.41037756 -0.47932455 0.001010789
0.10080514 0.048904523 0.7888127 0.76597279 0.41369164 -0.49208662 0.0012961866
-0.20374559 0.049170647 0.78025973 -0.064167343 0.74069715 0.6714713 0.052491598
-0.19527866 0.049849167 0.78144979 0.091943137 0.61779141 0.78109902 0.071132712
-0.18482766 0.048943959 0.7806049 0.22616857 0.45608726 0.8740049 0.074477598
-0.17990741 0.049007393 0.77869374 0.28719899 0.35857764 0.90492588 0.068758018
0.097837821 0.049366049 0.78446251 0.77331573 0.41280413 -0.48124033 0.0010200406
-0.19197322 0.050393987 0.78088522 0.13864608 0.5649721 0.81380731 0.072300263
-0.18609448 0.050057467 0.78056568 0.20423248 0.47553226 0.85814917 0.077067621
0.097199656 0.050487272 0.78432167 0.77306014 0.41568765 -0.47917259 0.0010365652
-0.19134243 0.051399346 0.77990842 0.11868592 0.58230954 0.80440146 0.073224165
-0.18561222 0.051247906 0.77981824 0.16560236 0.51650882 0.84781891 0.077048182
0.097049251 0.051572237 0.78495264 0.77172363 0.41851693 -0.47885081 0.0010192618
-0.18663275 0.052185133 0.77942413 0.11868909 0.56752568 0.82586324 0.073298164
0.096663155 0.052550584 0.7851395 0.77097827 0.42098179 -0.47789362 0.0010520401
0.096030183 0.053589448 0.78495938 0.7705546 0.42336988 -0.47646531 0.0010223328
0.09517388 0.054526467 0.7842347 0.7686407 0.42703658 -0.47627923 0.0010214482
0.095205732 0.055411458 0.78502202 0.76705551 0.43032107 -0.47587895 0.0010965952
0.093989767 0.056425925 0.7838968 0.76792604 0.43255219 -0.47245479 0.001065277
0.093320355 0.057481408 0.78368545 0.76758403 0.43499848 -0.47074893 0.0010391175
0.093435176 0.05841836 0.784688 0.76620317 0.43825904 -0.46996963 0.0011326651
0.093013912 0.059625171 0.78503919 0.76453102 0.4428466 -0.46839231 0.0012232655
0.08940386 0.060459413 0.7797727 0.76440388 0.44162065 -0.46974683 0.00088548369
0.092429124 0.060762905 0.78507954 0.76359755 0.44762298 -0.46536478 0.0013181493
0.089008108 0.061779317 0.78028744 0.76336724 0.44580293 -0.4674767 0.00096369209
0.091914698 0.061581034 0.78491473 0.76375103 0.45007604 -0.46273857 0.0013178388
0.088914335 0.062652461 0.78096753 0.76189125 0.44901228 -0.46681413 0.0010229208
0.092004143 0.062511541 0.78593099 0.76149738 0.45446092 -0.46216488 0.0014205578
0.088676356 0.063752502 0.78155929 0.76131296 0.45369247 -0.46323374 0.0011826188
0.091548786 0.063367084 0.78594369 0.76141232 0.45687741 -0.45990941 0.0013806205
0.088581093 0.064564258 0.78215122 0.76065028 0.45691153 -0.46114224 0.0012281493
0.091295868 0.064435579 0.78650063 0.76058561 0.46150354 -0.45664874 0.0015312223
0.088288367 0.065249726 0.78232807 0.76009506 0.45841551 -0.46056125 0.0012043645
0.091378629 0.065303013 0.78747225 0.75927186 0.46702331 -0.45320868 0.0016332868
0.08783631 0.066099271 0.78233999 0.76006407 0.45986411 -0.45916444 0.0012281432
0.090734027 0.066181839 0.78723979 0.75934881 0.46991244 -0.45008308 0.0016760557
0.087908328 0.067019805 0.78336233 0.75924879 0.46517363 -0.45514351 0.0013968501
0.090956435 0.067206085 0.78870881 0.75719047 0.47743845 -0.44577584 0.0018382204
0.087543473 0.068146445 0.78385407 0.75875318 0.46893269 -0.45210275 0.0015651972
0.090484381 0.068493687 0.78926307 0.75563568 0.48335946 -0.44202739 0.0018880051
0.087127998 0.069153816 0.78416467 0.75769341 0.47295594 -0.44968498 0.0015861016
0.086241677 0.070168719 0.78375065 0.75618911 0.47562119 -0.44940612 0.0016274741
0.086500607 0.071226731 0.78529876 0.75695354 0.48188052 -0.44139785 0.0018571427
0.085372925 0.072391696 0.78466696 0.75556856 0.48415342 -0.44130132 0.0018224563
0.084456034 0.073501684 0.78430271 0.75476044 0.4863655 -0.44023696 0.0019021889
0.083609022 0.074689768 0.7841115 0.75524962 0.4890618 -0.43641019 0.0019816777
0.082680769 0.075613856 0.7835831 0.75419527 0.4907178 -0.43636689 0.0019603269
0.083075777 0.076505929 0.785299 0.75436777 0.49654138 -0.42943397 0.0021244939
0.081540532 0.077607423 0.7838437 0.7536658 0.49667704 -0.43048853 0.0021200504
0.079817943 0.078561164 0.7819702 0.75089461 0.49403062 -0.43828765 0.0020832142
0.08199884 0.078858234 0.78623134 0.75462633 0.5043475 -0.41986167 0.0021358426
0.079470702 0.079497144 0.78245145 0.75049829 0.49823266 -0.43418917 0.0021606304
0.082237117 0.079953365 0.7882216 0.75453651 0.51119959 -0.41158801 0.0022380368
0.078435376 0.080211274 0.78149247 0.75050259 0.497385 -0.43515205 0.0020784081
0.081053801 0.081013791 0.78733659 0.75539315 0.50902534 -0.4127925 0.0022152979
0.078096956 0.081453368 0.78232092 0.75043333 0.50114572 -0.4309361 0.002104315
0.080590613 0.081878856 0.78788084 0.75908542 0.5027101 -0.41381699 0.0040439549
0.078079946 0.082343839 0.78338742 0.75064421 0.50405777 -0.42715248 0.0020892811
0.080428302 0.082681306 0.78902978 0.76119077 0.49238914 -0.42237222 0.007897974
0.077497996 0.083259985 0.78365058 0.75174022 0.50041884 -0.42950457 0.0029182401
0.076408632 0.084198274 0.78317207 0.75379556 0.49303409 -0.43447426 0.0048439126
0.0769054 0.08528015 0.78587842 0.75886214 0.47566357 -0.44535533 0.01292295
0.076090962 0.086398557 0.7858485 0.75932479 0.46681556 -0.45393655 0.017003169
0.074107185 0.087285765 0.78349048 0.75776476 0.46693125 -0.45640522 0.016829515
0.074039444 0.088320859 0.78500384 0.76077789 0.44675872 -0.471829 0.026725082
0.073124848 0.089096203 0.78424317 0.76444554 0.44100171 -0.47117698 0.028354507
0.072973609 0.090134628 0.78568119 0.76828617 0.41957399 -0.48437697 0.034932189
0.071451515 0.090807877 0.78362328 0.77065152 0.41637024 -0.48341623 0.036151808
0.070128143 0.091809899 0.7824198 0.76874501 0.40751693 -0.49393874 0.042119537
0.070661388 0.092715286 0.78482151 0.77553505 0.3760182 -0.50765324 0.04822439
0.067665249 0.094198182 0.78131497 0.77128005 0.37892148 -0.51220906 0.049901791
0.070569597 0.093695767 0.78618437 0.77970052 0.33912295 -0.52656227 0.057739981
0.067229331 0.095361419 0.78208637 0.77533752 0.34660685 -0.52809685 0.055105072
0.070327863 0.094761997 0.78714788 0.78076959 0.30289245 -0.54669213 0.06387262
0.067309871 0.096148714 0.78316516 0.77975965 0.318831 -0.5388639 0.059898939
0.070435308 0.096037269 0.78852868 0.7851969 0.25012615 -0.56799245 0.07283099
0.06747286 0.09723369 0.78479952 0.78108442 0.27092236 -0.5634917 0.067175999
0.07021454 0.097297423 0.78947657 0.78921127 0.1914449 -0.58856392 0.08045651
0.066928938 0.098271981 0.78510755 0.78024179 0.23329747 -0.58250022 0.074582875
0.065818474 0.099492781 0.78497159 0.78502893 0.1873147 -0.59488118 0.074799515
0.065059789 0.10053453 0.78489214 0.78304935 0.14487895 -0.61254746 0.077047303
0.0643517 0.10158968 0.78477103 0.78273737 0.096420474 -0.62951207 0.079616241
0.063181296 0.10271554 0.78413379 0.77506411 0.048166558 -0.65040362 0.085089393
0.060270794 0.10345282 0.77962506 0.78255969 0.10673174 -0.62985605 0.079210341
0.063657291 0.10376977 0.78535849 0.77331609 -0.036987402 -0.67559439 0.084655285
0.060551189 0.10458239 0.7814883 0.76574916 0.0038733766 -0.67165202 0.092105329
0.06359677 0.10467001 0.78588068 0.76402152 -0.11020903 -0.69484621 0.088168144
0.059175763 0.10568568 0.77996457 0.76935685 -0.019516982 -0.67597413 0.085361488
0.062861264 0.10568973 0.78544003 0.7505185 -0.16085738 -0.71183068 0.090879925
0.060088694 0.10644815 0.78219897 0.74742174 -0.12523103 -0.70320094 0.098892018
0.063069314 0.10685673 0.78613424 0.73134172 -0.26043656 -0.73017347 0.094921872
0.059374165 0.10753367 0.7813735 0.74226427 -0.17709841 -0.71782798 0.096417896
0.062822208 0.10793076 0.78625059 0.70295709 -0.31809872 -0.7338835 0.097893149
0.059235398 0.10857937 0.78156406 0.72553283 -0.25206262 -0.73318958 0.09787339
0.062597387 0.10865562 0.78634542 0.68381119 -0.32810313 -0.72382456 0.1022541
0.059118919 0.10951529 0.78172988 0.70317459 -0.30339259 -0.73547196 0.10078984
0.062808543 0.10943392 0.78668231 0.66563052 -0.35359457 -0.71647811 0.10348868
0.059069447 0.11038984 0.78186852 0.68180948 -0.34347567 -0.73476249 0.10088858
0.062828302 0.11015007 0.78658545 0.65437317 -0.34846047 -0.70802271 0.10641462
0.059004862 0.11118393 0.78213197 0.66389143 -0.34193453 -0.7202388 0.10234127
0.06292218 0.11089253 0.78667957 0.64844072 -0.33212027 -0.69967371 0.10516891
0.058804385 0.1120791 0.78191364 0.64732474 -0.34477779 -0.71647817 0.10211271
0.063373685 0.11196383 0.78652954 -0.65358591 0.29301324 0.69784087 0.10816007
0.05813022 0.11287155 0.78109181 0.64596105 -0.31992835 -0.70961225 0.10476884
0.065673336 0.11344022 0.78721285 -0.64452392 0.33004943 0.69885761 0.11078492
0.070606552 0.11391991 0.78916728 -0.57924914 0.44354999 0.69066334 0.0963227
0.058281474 0.11380942 0.78095537 -0.67377043 0.23918626 0.7023046 0.10496931
0.064228132 0.11456157 0.78494722 -0.63225085 0.34446919 0.70197648 0.1038747
0.073516086 0.11532087 0.78917134 -0.49915412 0.56410301 0.65780878 0.0898057
0.057752036 0.11498085 0.7798 -0.65971529 0.27494416 0.70260918 0.10297243
0.06502033 0.11584009 0.78430319 -0.58868414 0.41715106 0.69628263 0.10124207
0.074490227 0.11628167 0.78805804 -0.46394017 0.61141354 0.64200681 0.084409133
0.083558798 0.11650335 0.78961229 0.36435434 -0.72213972 -0.59057695 0.04853325
0.059282128 0.11624297 0.780056 -0.62213862 0.3480691 0.70343912 0.10207627
0.065230839 0.11693059 0.78312498 -0.5598641 0.47253355 0.68242341 0.098050036
0.073795222 0.11700457 0.78625 -0.43985477 0.62726343 0.64347547 0.078148037
0.084415257 0.11716612 0.78869456 0.35022858 -0.73445982 -0.58347327 0.042055231
0.090344764 0.11798078 0.78993917 0.32140893 -0.7764141 -0.54286581 0.018455885
0.065689065 0.11789456 0.78170621 -0.52648705 0.51714426 0.67561179 0.092339307
0.075324602 0.11798234 0.78515619 0.40752903 -0.67296898 -0.61960983 0.068668276
0.084196374 0.11808765 0.78708124 0.33420414 -0.74786848 -0.57575095 0.036114383
0.092068925 0.11879676 0.7895121 0.31050229 -0.78501505 -0.53661305 0.012583915
0.068107009 0.11862414 0.78130913 -0.46891758 0.59282064 0.6548388 0.08313264
0.073998153 0.11880737 0.7826187 -0.39238012 0.67965448 0.62175995 0.067774221
0.085775055 0.11924268 0.78614092 0.32263216 -0.76306576 -0.56193274 0.026716849
0.092218697 0.11976 0.78792 0.29507872 -0.79316568 -0.53280193 0.0066939639
0.075883746 0.11982664 0.78161198 0.36308631 -0.71499068 -0.60007912 0.055674024
0.084078476 0.12013211 0.78398758 0.31392932 -0.76306099 -0.56670904 0.027896469
0.093735754 0.12049782 0.78730172 0.28138825 -0.80553222 -0.52154046 0.0017513977
0.078075774 0.12098817 0.78062004 0.32713726 -0.74493963 -0.58407342 0.038064677
0.085221648 0.12122045 0.78284484 0.29994661 -0.77632552 -0.55542225 0.018406045
0.092904165 0.1214652 0.7854988 0.27711764 -0.80626589 -0.52268326 0.0016574126
0.08500094 0.12215891 0.781371 0.28915092 -0.7825368 -0.55210811 0.014408275
0.094366916 0.12204479 0.78549653 0.28276762 -0.80367988 -0.52364904 0.0016605543
0.087189138 0.12282455 0.78073716 0.26277649 -0.80722594 -0.5285567 0.0015665499
0.094677567 0.1226354 0.78484368 0.28348127 -0.80348557 -0.52356422 0.0016101056
0.088911653 0.12376021 0.78023964 0.2675319 -0.80731046 -0.52602834 0.001593394
0.09485659 0.12322655 0.78413165 0.28389341 -0.8025431 -0.52479124 0.0016172382
0.10123327 0.12281711 0.78847092 0.28418073 -0.80668449 -0.51824915 0.0017568853
0.09556099 0.12388372 0.78366601 0.28501093 -0.80240798 -0.52437806 0.0015331283
0.10285218 0.12378046 0.78807908 0.28281042 -0.806189 -0.51977074 0.0018266708
0.095511839 0.12459681 0.78261137 0.28424922 -0.8022958 -0.52495688 0.0015078525
0.10367679 0.12505457 0.78672707 0.28199893 -0.80635256 -0.51994401 0.0018628517
0.096702777 0.12568507 0.78181338 0.28244209 -0.80299824 -0.52486712 0.0014635713
0.1059585 0.12640744 0.7861563 0.27420428 -0.80976534 -0.51880753 0.002111699
0.11146984 0.12674947 0.78868562 0.25213054 -0.81858128 -0.51610464 0.0022797608
0.097082451 0.12691222 0.78032017 0.28247589 -0.80350596 -0.52405882 0.0014319511
0.10421924 0.127473 0.78350902 0.27688619 -0.80747604 -0.52090693 0.0017951515
0.11424432 0.12794396 0.78827196 0.23750298 -0.82449472 -0.5136292 0.002498101
0.10548159 0.12846383 0.78281575 0.27129823 -0.81014603 -0.51970541 0.0019338917
0.11571909 0.12875836 0.78750211 0.22874351 -0.8278017 -0.51229423 0.0024590658
0.12146196 0.12905039 0.7890321 0.20756593 -0.83698624 -0.50640124 0.001879444
0.1063665 0.12928417 0.78206736 0.26451224 -0.81225133 -0.51989734 0.0019369138
0.11420476 0.12965034 0.78545308 0.23205018 -0.82637 -0.5131191 0.0025227533
0.12297846 0.12980197 0.78826106 0.19827482 -0.83998531 -0.5051505 0.0016250216
0.10726466 0.13011296 0.78132761 0.25990057 -0.81431586 -0.51898968 0.0019940024
0.11569171 0.13058759 0.78448379 0.2223389 -0.82964581 -0.51216811 0.0024159155
0.12407131 0.13052949 0.78730667 0.19213624 -0.84204686 -0.50407642 0.0013650138
0.13412766 0.13125069 0.78937268 0.18395782 -0.8467918 -0.49910572 0.00091371109
0.10889253 0.13095036 0.78085124 0.25104129 -0.8187356 -0.51638407 0.0020939833
0.11468579 0.13141988 0.78275204 0.22535256 -0.82887423 -0.51205266 0.0023714227
0.12582701 0.13144127 0.7862305 0.18558627 -0.84446287 -0.50245464 0.0010083395
0.13520794 0.13180719 0.78885996 0.18578632 -0.84647471 -0.49896625 0.00090979523
0.14074069 0.13267037 0.78968734 0.19735166 -0.84653473 -0.49440449 0.00096094696
0.10986479 0.13202272 0.77965558 0.24398901 -0.82250178 -0.51378411 0.0020496794
0.11550205 0.1323802 0.78150833 0.21934007 -0.83125699 -0.51081115 0.0020932853
0.1245816 0.13253218 0.78407812 0.18415102 -0.84408998 -0.50361043 0.0010273175
0.13486978 0.13284585 0.7869817 0.18458721 -0.84733272 -0.49795315 0.00089628267
0.14126484 0.13353421 0.78843588 0.19705872 -0.84684056 -0.49399769 0.0010161081
0.1171712 0.13334499 0.78054315 0.20734006 -0.83606893 -0.50801015 0.0018070581
0.12527274 0.13356873 0.78256619 0.18105292 -0.84551305 -0.5023337 0.00084652577
0.13433912 0.13367109 0.78540373 0.18371347 -0.84777951 -0.49751481 0.00090939202
0.14275071 0.13423535 0.78784454 0.19968164 -0.84692693 -0.49279815 0.001050348
0.11837346 0.13403653 0.77984476 0.19946504 -0.83938825 -0.50567538 0.0016040525
0.12495422 0.13442507 0.78105038 0.17998481 -0.84611595 -0.50170481 0.00085723726
0.13475993 0.13451476 0.78413469 0.18360661 -0.84776914 -0.49757349 0.00091171981
0.14391755 0.13473882 0.78747344 0.20096399 -0.84725708 -0.49171251 0.001075386
0.12724987 0.135271 0.78036731 0.18000281 -0.8457635 -0.50229073 0.0008018369
0.13586044 0.13536426 0.78303373 0.18385635 -0.8475675 -0.49782544 0.00090976449
0.14378579 0.13549018 0.78611887 0.19991161 -0.84756535 -0.49160954 0.001101187
0.12952472 0.13591799 0.77994192 0.18058454 -0.84559226 -0.50238836 0.00088173454
0.13440381 0.13612305 0.78112417 0.18255204 -0.84733158 -0.49870288 0.00091091933
0.14466879 0.13622558 0.7852329 0.20133901 -0.84764475 -0.49089125 0.0011110675
0.15037936 0.13583636 0.7884931 0.21533217 -0.8448078 -0.4898437 0.0011184233
0.13768528 0.13714811 0.78058797 0.18432491 -0.84795266 -0.49700299 0.00096486678
0.14501226 0.13710202 0.78372991 0.20041245 -0.84801024 -0.49063289 0.001123732
0.15335141 0.13668677 0.78848118 0.2215576 -0.84375829 -0.48888406 0.0012042796
0.14636637 0.13808109 0.78259999 0.20241891 -0.84864783 -0.48870501 0.001096316
0.15520753 0.13805386 0.78704739 0.22390914 -0.84539956 -0.48495239 0.0012795633
0.1606019 0.13849163 0.78901964 0.22138333 -0.84735972 -0.48267886 0.0014868956
0.14816818 0.13910344 0.7816031 0.20550947 -0.84985262 -0.48530665 0.0011335602
0.15404938 0.13923778 0.78436667 0.22050355 -0.84888005 -0.48040861 0.0013083157
0.16149788 0.13931069 0.78807664 0.21982849 -0.84993631 -0.47884205 0.0015973251
0.14906292 0.14003581 0.78028446 0.20539391 -0.85080254 -0.48369572 0.0011557788
0.15548547 0.14050227 0.78283983 0.21571079 -0.85198802 -0.47707704 0.0013102682
0.1630041 0.1401231 0.78730255 0.21861933 -0.85185021 -0.47598514 0.0016708756
0.15545051 0.14140844 0.78115082 0.21324712 -0.85408545 -0.47444004 0.0013506543
0.16443819 0.14131024 0.78589696 0.21370982 -0.85564625 -0.47139165 0.0019202012
0.17119062 0.14139518 0.78869873 0.20090835 -0.85954869 -0.46992296 0.0021538527
0.15837353 0.14245377 0.78067672 0.20903227 -0.85722989 -0.47062418 0.0013081797
0.16540481 0.14267354 0.78375208 0.20667762 -0.85991877 -0.46674427 0.0017762717
0.17539494 0.14239596 0.78836304 0.19283158 -0.8633436 -0.46636799 0.0022446755
0.18470851 0.14372325 0.78924733 0.17138265 -0.86606193 -0.47077429 0.0025369967
0.19285041 0.14451431 0.78969365 0.14548099 -0.85949302 -0.49179149 0.0029341239
0.16664664 0.14389256 0.78171849 0.203665 -0.86269963 -0.46291754 0.0015759278
0.17427634 0.14321297 0.78613353 0.19254002 -0.86392611 -0.46539694 0.0019635851
0.1846983 0.14445738 0.78761387 0.17508021 -0.8650713 -0.47086868 0.0024509337
0.19442719 0.14515653 0.78889591 0.14833324 -0.85318327 -0.50232226 0.0032726037
0.16925591 0.14469296 0.7811693 0.19816518 -0.86391616 -0.46304056 0.0015891992
0.17518215 0.14429443 0.78420353 0.19026326 -0.86409312 -0.46602756 0.001908579
0.18499592 0.14511532 0.78632349 0.17640206 -0.8640362 -0.47205251 0.00245895
0.19389468 0.14593029 0.78746086 0.16054 -0.8495819 -0.50430655 0.0032471886
0.17533834 0.1452284 0.78233939 0.19262065 -0.86294663 -0.46718207 0.0019005478
0.1847699 0.14580318 0.7848084 0.18261079 -0.86112833 -0.47476059 0.0024875051
0.19538288 0.14653268 0.78679895 0.16612871 -0.84121561 -0.51724875 0.0035767609
0.17694595 0.1459489 0.78146899 0.19289123 -0.86182445 -0.46913156 0.0020382353
0.18430895 0.14651857 0.78324747 0.18789528 -0.85859281 -0.47715661 0.0024730959
0.19448902 0.14701293 0.7858119 0.16564846 -0.84354168 -0.51374733 0.0034987512
0.17754744 0.14668822 0.78016233 0.19345725 -0.8612687 -0.46990609 0.0020946267
0.18594469 0.14732896 0.78228033 0.18905076 -0.85547113 -0.48235697 0.0026596333
0.19471069 0.14750209 0.78504479 0.1722739 -0.83910108 -0.51883048 0.0036063276
0.17918544 0.14732087 0.77958965 0.19543992 -0.85933059 -0.47261322 0.0022314573
0.18502122 0.1480072 0.78067172 0.19603185 -0.85286587 -0.48411843 0.0026960424
0.19517791 0.14800812 0.78432703 0.17727098 -0.83407992 -0.52592385 0.0039570467
0.18846731 0.14881128 0.78059167 0.19683856 -0.84633124 -0.49567178 0.002989409
0.19601069 0.14868084 0.78353953 0.1824445 -0.82761806 -0.53511775 0.0043039708
0.18956725 0.14969854 0.7794705 0.20656773 -0.83916223 -0.5043813 0.0032519989
0.19473326 0.14928676 0.7821399 0.19052367 -0.82808065 -0.53132731 0.0040846439
0.19574982 0.15034939 0.78084576 0.19572677 -0.82043093 -0.54156232 0.0041452572
0.19686081 0.15157665 0.77954054 0.2089704 -0.81212592 -0.54950219 0.0041962327
-0.23314939 -0.12993234 0.79894966 0.48845118 -0.6890986 -0.57924688 0.0064716022
-0.23430385 -0.12923212 0.79699385 0.51147312 -0.65835965 -0.59827775 0.009431975
-0.23552662 -0.12865816 0.79469562 0.56114143 -0.61183017 -0.63984042 0.023922615
-0.23516797 -0.12808156 0.79432833 0.53992796 -0.61615682 -0.65298104 0.028892837
-0.23458272 -0.12735769 0.79407173 0.51890385 -0.62333006 -0.65185845 0.029691674
-0.22971405 -0.12744185 0.79872316 0.39960971 -0.73024654 -0.5723179 0.005518693
-0.23362704 -0.12658365 0.79388034 0.47854674 -0.64586782 -0.6507681 0.029849976
-0.22908004 -0.12663162 0.79811937 0.38485456 -0.73550683 -0.5729118 0.0054844525
-0.23335157 -0.1257046 0.79295319 0.45338762 -0.6491313 -0.66302174 0.037991896
-0.22613093 -0.12546402 0.79842955 0.3401629 -0.75982153 -0.56237924 0.0056393626
-0.23270009 -0.12465327 0.79220349 0.40837818 -0.66231674 -0.66657203 0.039648261
-0.22509596 -0.12433854 0.79744714 0.31900579 -0.76862282 -0.56043679 0.0055932701
-0.23216106 -0.1235868 0.79122275 0.3611373 -0.67253613 -0.6775679 0.046167791
-0.22561343 -0.12353419 0.79558516 0.31150678 -0.76111513 -0.57611829 0.010233267
-0.21922626 -0.1232926 0.79877651 0.26540941 -0.80043536 -0.5382185 0.0043932707
-0.23206176 -0.12257906 0.7904793 0.34637323 -0.67600888 -0.67731088 0.051708389
-0.22516666 -0.12245563 0.7941395 0.29161051 -0.7614069 -0.58600724 0.01387698
-0.21807057 -0.12239796 0.79783154 0.25369167 -0.80432022 -0.53766537 0.0042258063
-0.23118083 -0.12166218 0.78991324 0.32206061 -0.68233013 -0.67916495 0.05203446
-0.22580251 -0.1217253 0.79254037 0.28130981 -0.75552815 -0.59975386 0.020562775
-0.21650714 -0.12147477 0.79697943 0.24265103 -0.80895323 -0.53552639 0.0039459644
-0.23103787 -0.12111536 0.78933388 0.30065763 -0.68515873 -0.68260151 0.051794074
-0.2249878 -0.12059028 0.79121011 0.2549625 -0.75884563 -0.60547727 0.023223575
-0.21436171 -0.12073722 0.79663897 0.23141156 -0.8141675 -0.53253263 0.0037017737
-0.23137639 -0.12079505 0.78880787 0.29625487 -0.67871386 -0.69203365 0.057713486
-0.22382981 -0.11957224 0.79019481 0.23576182 -0.76299149 -0.60578036 0.022716846
-0.21507318 -0.11946357 0.79415911 0.22548148 -0.81034988 -0.5408392 0.0040270477
-0.20512199 -0.119946 0.7986449 0.22755085 -0.82843643 -0.51179385 0.0014623017
-0.19949818 -0.11883023 0.79916275 0.23355992 -0.83461767 -0.49886808 0.0011471057
-0.21443817 -0.1182698 0.79248488 0.21646406 -0.80998152 -0.54515105 0.0045183999
-0.20549007 -0.11910977 0.79700655 0.22324435 -0.82717222 -0.51571876 0.0017183389
-0.19841602 -0.11814621 0.79849994 0.23675485 -0.83371866 -0.49886096 0.0011988841
-0.21279036 -0.11716431 0.7912119 0.21311019 -0.80978036 -0.54676521 0.0038217944
-0.20503601 -0.11801329 0.79526174 0.21811917 -0.82660741 -0.51879638 0.0017120434
-0.19733505 -0.11745303 0.7978425 0.24015909 -0.83237827 -0.49947497 0.0012784541
-0.21253747 -0.11651701 0.79025817 0.20957236 -0.8088845 -0.54947418 0.0036967997
-0.20534539 -0.11678401 0.79304028 0.20809537 -0.82212716 -0.52993661 0.0020780319
-0.19557251 -0.1167527 0.79757041 0.24377254 -0.83236885 -0.49773192 0.0012792844
-0.20345463 -0.11594319 0.79252583 0.21156423 -0.82384086 -0.52586424 0.0017193558
-0.19465512 -0.11571892 0.79629993 0.24233922 -0.83076662 -0.50110149 0.0014208917
-0.18922824 -0.11543516 0.79871988 0.25727963 -0.83278024 -0.49018934 0.0011591254
-0.20225492 -0.11480116 0.79121977 0.20950006 -0.82217342 -0.5293026 0.001703681
-0.1948103 -0.11484528 0.79482448 0.23976445 -0.82887042 -0.50546372 0.0014944519
-0.18691084 -0.11431493 0.79813707 0.25924867 -0.83197302 -0.49052516 0.0011914861
-0.2011552 -0.11395446 0.7903704 0.20946681 -0.8221935 -0.52927786 0.0017823807
-0.19483164 -0.11407554 0.79353178 0.23712794 -0.82779294 -0.5084613 0.0015887016
-0.18499959 -0.11323706 0.79744011 0.26002538 -0.83161956 -0.49071476 0.0011900801
-0.19497262 -0.11311603 0.79186249 0.23333864 -0.82741481 -0.51083815 0.0018145395
-0.184999 -0.11211376 0.79556417 0.2591711 -0.83074307 -0.4926433 0.0012004651
-0.17729524 -0.11194609 0.79940659 0.26292288 -0.83004522 -0.49183175 0.001383557
-0.19353043 -0.11216449 0.79100925 0.23633307 -0.82774496 -0.50890613 0.0019654422
-0.18499619 -0.11098482 0.7936725 0.25631729 -0.83062208 -0.49433747 0.0013272525
-0.17642008 -0.11090425 0.79816824 0.26492819 -0.82874221 -0.4929527 0.0014177614
-0.26680773 -0.11033778 0.79064399 0.71094161 -0.052534923 0.7528652 0.056278009
-0.19235687 -0.11138348 0.79031378 0.23846155 -0.82833064 -0.50695604 0.0020337668
-0.18462545 -0.10996842 0.79213172 0.25470737 -0.83143777 -0.49379805 0.0014590841
-0.17609671 -0.10995624 0.79680133 0.26684555 -0.82773489 -0.49361178 0.0013686934
-0.26622564 -0.10892856 0.79009527 0.67726493 -0.094901264 0.7646628 0.051995952
-0.19090515 -0.11048916 0.78964627 0.23867238 -0.8284632 -0.50664097 0.0020104786
-0.18388556 -0.108995 0.79086781 0.25487438 -0.83245617 -0.49199405 0.0014846745
-0.17589524 -0.10907868 0.7954911 0.26719347 -0.82802022 -0.49294722 0.0013255968
-0.26593 -0.10799507 0.78990716 0.66221678 -0.11141095 0.77011228 0.049724795
-0.18077819 -0.10760943 0.79033047 0.25720698 -0.83211285 -0.49136358 0.001319845
