# .PCD v0.7 - Point Cloud Data file format
VERSION 0.7
FIELDS x y z rgb
SIZE 4 4 4 4
TYPE F F F U
COUNT 1 1 1 1
WIDTH 1116
HEIGHT 1
VIEWPOINT 0 0 0 1 0 0 0
POINTS 1116
DATA ascii
-0.33116314 0.085343376 0.66210002 7566191
-0.32642555 0.085608914 0.66673928 7697521
-0.3149457 0.085514948 0.66800016 8158589
-0.30877057 0.085642956 0.66900003 9869208
-0.034834854 0.08550743 0.66543758 5592657
-0.029092958 0.085462235 0.66000003 5790037
-0.0025398273 0.085534953 0.66387498 7237488
0.00029700075 0.085642956 0.66900003 3487031
-0.3303977 0.086369827 0.66100001 7500398
-0.32502392 0.086483791 0.66542315 7960692
-0.31511596 0.086505227 0.66720688 8750726
-0.30736771 0.086636715 0.66793346 9408656
-0.034997862 0.086496703 0.66588235 5724244
-0.02936569 0.086520851 0.6606667 5724244
-0.0027940434 0.086510539 0.66433334 6974572
-0.32499009 0.087496966 0.66319346 7829106
-0.31597272 0.08757934 0.66519994 8947848
-0.30499163 0.087589808 0.66784209 9408399
-0.29544064 0.087847538 0.66891676 9145228
-0.03473765 0.08753404 0.66618752 5723987
-0.028865034 0.087449253 0.66033334 5855830
-0.0034371689 0.08745949 0.66430008 7106158
-0.32392624 0.088598751 0.66108 7894643
-0.31456614 0.088445015 0.66370833 9540498
-0.30511534 0.088549219 0.66586667 9408399
-0.29536611 0.088645041 0.66692007 9079434
-0.28993848 0.088597 0.66900003 9145227
-0.034163747 0.088499397 0.6664167 5723989
-0.028522419 0.088609628 0.66083336 5921370
-0.0045810039 0.088510536 0.66374999 7434867
-0.32173824 0.08959084 0.66000003 8223608
-0.3146593 0.08944492 0.66151857 9343373
-0.3051492 0.089658305 0.66310346 9144968
-0.29431096 0.089608245 0.66474074 8947848
-0.28928009 0.08961501 0.66833347 9013639
-0.034031268 0.089464411 0.66700011 5921368
-0.028191235 0.089661658 0.66160005 5855577
-0.0050742831 0.089566208 0.66433334 7566453
-0.31335959 0.09031941 0.65999997 9343115
-0.30448797 0.090453207 0.66131258 9144712
-0.29415041 0.090459347 0.66280949 8881542
-0.28819212 0.090561658 0.66770005 8881026
-0.033819906 0.090447642 0.66740006 5000268
-0.02775877 0.090518594 0.66212505 5658711
-0.005564265 0.090485223 0.66463643 7369330
-0.30319029 0.091288276 0.66033334 9079176
-0.29484159 0.091471471 0.66042852 8684419
-0.2865001 0.091489322 0.6665417 9012612
-0.27959931 0.091551051 0.66900003 8947074
-0.032576833 0.091403469 0.66725004 5658969
-0.026410662 0.09149763 0.66181827 5658968
-0.0067814179 0.091453083 0.66383338 7698552
-0.28544492 0.09246967 0.66565633 9275784
-0.27879286 0.092540659 0.66844451 8881025
-0.032390866 0.092463896 0.667889 5790554
-0.026437482 0.092527553 0.66330004 5790040
-0.0067494586 0.092451505 0.66446155 7698552
-0.28548932 0.093496934 0.66413045 9276554
-0.27738708 0.093446925 0.66830009 8946816
-0.032420214 0.093573429 0.66850001 5855834
-0.02580183 0.093450472 0.6635384 5723991
-0.010635657 0.093962304 0.66000003 7632760
-0.0070298724 0.093385354 0.66419995 7698552
-0.28418514 0.094474845 0.66380763 9211017
-0.27722418 0.094541654 0.66694444 8947073
-0.031816822 0.094469786 0.66875005 5921370
-0.025921838 0.094489224 0.6644001 5789784
-0.010635657 0.094690882 0.66000003 7632760
-0.0075481995 0.09446916 0.66460007 7632760
-0.28301105 0.095536143 0.6627779 9078406
-0.27550161 0.095616952 0.66646159 8946817
-0.26778311 0.095982127 0.66900009 9078660
-0.25781319 0.095982127 0.66900003 8946561
-0.031311341 0.095539019 0.66900003 5921370
-0.026342468 0.095552005 0.66537499 5789784
-0.011008004 0.095491752 0.66050005 7500402
-0.0077769943 0.095582768 0.66520005 7698553
-0.28303307 0.096487992 0.66149998 9407372
-0.27482253 0.096532643 0.66528577 8946818
-0.26508346 0.09667933 0.66871434 8486523
-0.25707465 0.096720636 0.66900009 9209989
-0.03072053 0.096720636 0.66900003 5921113
-0.025243495 0.096552052 0.66446668 5723477
-0.011732552 0.096366607 0.66025001 7895417
-0.0081513785 0.096605219 0.66566676 7566967
-0.28193215 0.097368218 0.66109091 9144201
-0.27514234 0.097521178 0.66373342 9078661
-0.26585862 0.097493492 0.66747838 8749695
-0.25606677 0.097357169 0.66830009 9671054
-0.025705321 0.09747123 0.66506666 5854805
-0.012008251 0.097461179 0.66114289 7763574
-0.0085270954 0.097491935 0.66620004 7566967
-0.28140837 0.098371021 0.66025007 8946822
-0.27394843 0.098447613 0.66226095 9143941
-0.2647804 0.09843909 0.66643995 8749440
-0.25534567 0.098451957 0.66792005 9342346
-0.026231214 0.098458834 0.66526324 5723987
-0.012491723 0.098509587 0.66200006 7697781
-0.0089063188 0.098456055 0.667 7566966
-0.28057361 0.099062353 0.66000003 8947593
-0.27386293 0.099278972 0.66042101 8881026
-0.26500624 0.099538252 0.6648621 8880770
-0.25552946 0.099554993 0.66715783 9407882
-0.03072053 0.099674687 0.66900003 5921364
-0.025369264 0.099530369 0.66394448 5592401
-0.013591764 0.099484704 0.66241676 7763317
-0.0092897573 0.099525698 0.66800004 7829367
-0.26535648 0.10054779 0.66288 8880771
-0.25444472 0.10048541 0.66665393 9473418
-0.24950266 0.10033816 0.66850007 9474188
-0.03072053 0.1004132 0.66900003 5855573
-0.025110267 0.10052999 0.6635555 5460559
-0.014608911 0.10048893 0.66276926 6776423
-0.26353157 0.10150755 0.66194725 9012358
-0.25585222 0.1014918 0.66523814 9342090
-0.24814321 0.10145783 0.66836375 9539983
-0.03072053 0.10152097 0.66900003 6118745
-0.025593113 0.10144664 0.66411769 5263437
-0.014816155 0.10139682 0.66371435 6579043
-0.26182458 0.10244849 0.66090912 9341580
-0.25481072 0.10241763 0.66421431 9473677
-0.24774443 0.10254408 0.66724998 9934743
-0.03072053 0.10262875 0.66900003 6052952
-0.025287773 0.10240331 0.66425002 5263180
-0.015628172 0.10233346 0.66350001 6578787
-0.26053774 0.10343382 0.66000003 8486270
-0.25492308 0.10345387 0.66246426 9473932
-0.24487433 0.10351365 0.66728002 10066329
-0.03072053 0.10336725 0.66900003 5987159
-0.024910299 0.10348036 0.66476196 4999752
-0.016287491 0.10345732 0.66425002 6118236
-0.25318766 0.10442755 0.66141176 9802641
-0.24514911 0.10452385 0.66528577 9934999
-0.2389857 0.10448618 0.66860008 9474188
-0.03072053 0.10410576 0.66900003 5921366
-0.024848931 0.10454702 0.66517651 5000265
-0.016219715 0.10459705 0.66508335 6908008
-0.25148147 0.10532074 0.6606667 10132118
-0.24521959 0.10550459 0.66318524 9671825
-0.23858902 0.10554716 0.66722226 9605517
-0.025165701 0.10552239 0.66600001 5066058
-0.016451126 0.10554417 0.66550004 6776422
-0.25070196 0.10634812 0.66000003 10066582
-0.24410003 0.10641565 0.66200006 10198169
-0.23778649 0.10653674 0.66631252 8091251
-0.025558922 0.10649472 0.66682363 5197386
-0.016397785 0.10648036 0.6663 6842214
-0.24279216 0.10742407 0.66085714 9803154
-0.23709494 0.10754814 0.66593337 7959665
-0.22568789 0.10779832 0.66900003 7959666
-0.025060954 0.10743483 0.6670714 4934214
-0.016338792 0.1073861 0.66689998 7039849
-0.24079242 0.10840599 0.66100007 7565682
-0.23553592 0.10853534 0.66616672 8025459
-0.22513518 0.10865442 0.66805261 8354425
-0.023634983 0.10844859 0.66694444 4342077
-0.017070157 0.10845257 0.66666675 7171178
-0.24050187 0.10962673 0.66000003 8486270
-0.23527218 0.10941795 0.6648888 8025459
-0.22469406 0.10950156 0.66622227 8354424
-0.21961552 0.1095624 0.66850007 8157303
-0.024338812 0.10950369 0.66750002 4605505
-0.01680056 0.10952112 0.66700006 7303022
-0.24013759 0.11071959 0.66000003 8223098
-0.23511696 0.11044315 0.66337043 7959668
-0.22474335 0.11049329 0.66466659 8354937
-0.21826504 0.1104974 0.66827279 7894389
-0.023625586 0.11052503 0.66733342 4211003
-0.017448569 0.11051103 0.66710001 7500401
-0.23443767 0.11149582 0.66211545 8157048
-0.22501937 0.11152152 0.66276926 8289144
-0.21796669 0.11148553 0.6673637 7894388
-0.023207355 0.11152226 0.66718191 3947575
-0.017802132 0.1115206 0.6672858 7632242
-0.23359571 0.1124857 0.66038883 8354424
-0.22508803 0.11251278 0.66157138 8157558
-0.21704786 0.11246259 0.6672942 7697009
-0.20309593 0.11258148 0.668625 8156792
-0.19921139 0.11274108 0.66875005 8025206
-0.023665255 0.11252492 0.66783339 4144954
-0.017584503 0.11252239 0.6680001 7566448
-0.22432649 0.1134624 0.66088891 7960179
-0.21698999 0.1135428 0.66668749 7499117
-0.2043869 0.11356479 0.66816682 8222585
-0.19850896 0.11357896 0.66825008 7959413
-0.02292517 0.11349397 0.66775 3815989
-0.018506538 0.11353647 0.66800004 7763825
-0.22318245 0.11438813 0.66049999 7696751
-0.21585166 0.11448331 0.66657138 7696495
-0.20447402 0.11446056 0.66713643 8091252
-0.19841813 0.11444344 0.66769999 8222838
-0.022573555 0.11432277 0.66828579 3947575
-0.018885123 0.1143309 0.66833335 7698032
-0.22130567 0.11539217 0.6603334 7499372
-0.21525678 0.11548071 0.66646427 8091252
-0.20533377 0.11554448 0.66608709 8222838
-0.19681564 0.11549118 0.6679334 8222838
-0.02204494 0.11544088 0.66854554 4276541
-0.019273585 0.11518346 0.66900003 7566447
-0.22046599 0.11654821 0.66000003 8289144
-0.21527813 0.11654682 0.66492587 8091509
-0.20508017 0.11649377 0.66523814 8420473
-0.19635701 0.11651496 0.66737503 8683646
-0.2146665 0.1175261 0.66330773 7894386
-0.20503534 0.11756782 0.66377777 8157558
-0.19479683 0.11751647 0.66732001 8683647
-0.21411198 0.11848806 0.66095227 8091252
-0.20538777 0.11855889 0.662 8157048
-0.19570923 0.11853428 0.66609538 8881028
-0.18908411 0.11860023 0.66883332 8420478
-0.20273921 0.11945952 0.66159999 8289145
-0.19500732 0.11954203 0.66563994 8881029
-0.18786217 0.11951236 0.6684286 8486272
-0.20159888 0.12041876 0.66025001 8618109
-0.19575006 0.1205112 0.66370362 8881286
-0.18640235 0.12053338 0.66785723 8946823
-0.19448903 0.12144943 0.66350001 8222842
-0.18449287 0.12142877 0.66679996 9144202
-0.17638771 0.12154841 0.66894734 9605521
-0.19311035 0.12237411 0.66352642 8946820
-0.18452305 0.1224388 0.66506457 9341579
-0.17548689 0.12254613 0.66837513 9473678
-0.19263971 0.12341307 0.66221434 9473419
-0.18479781 0.12348325 0.66350001 9276042
-0.17486374 0.12351958 0.66799998 9539215
-0.19161209 0.12438612 0.66100007 9276039
-0.18483952 0.12449376 0.66157144 9539212
-0.17578125 0.12453525 0.66677278 9605264
-0.16861503 0.12447577 0.66866678 9079177
-0.18447 0.12533858 0.66024995 9605004
-0.17521462 0.12552078 0.66573334 9671314
-0.16835305 0.12558767 0.66787505 9276556
-0.18161231 0.1263168 0.66012502 10065555
-0.17517371 0.12659119 0.66371894 9539469
-0.16715337 0.12651648 0.66775006 9539728
-0.18075851 0.12747687 0.66000003 10065555
-0.17520718 0.12750824 0.66215789 9539211
-0.16708347 0.12754638 0.66641182 9276556
-0.17323241 0.12836954 0.66159999 9737105
-0.16619068 0.12855701 0.66543478 9342606
-0.17127918 0.12935792 0.66057146 9803155
-0.16486971 0.1294602 0.66433328 10197659
-0.15695427 0.12953542 0.66841185 10790050
-0.16376224 0.13042626 0.66246152 10724260
-0.15653479 0.13052945 0.66685021 10658463
-0.16215728 0.13133009 0.66072726 10921638
-0.15526997 0.13150075 0.6655001 10395292
-0.14490926 0.13154638 0.66771424 10132120
-0.13914274 0.13179137 0.66833335 9145229
-0.15510008 0.13247633 0.6632759 10263708
-0.14499997 0.13242993 0.6647501 10395294
-0.1376804 0.132567 0.66840005 9605524
-0.15357921 0.13342918 0.66194743 10066329
-0.14474919 0.13346551 0.6627931 10395294
-0.13727194 0.1335434 0.666875 9671572
-0.15280017 0.13435815 0.66040003 10197915
-0.1448413 0.13453624 0.66067857 10526623
-0.13623306 0.13453999 0.66595453 9737365
-0.14105104 0.13549124 0.66000003 10197658
-0.13528611 0.13551261 0.66514814 9605521
-0.12931198 0.13586181 0.66900003 9605521
-0.13484307 0.13653827 0.66396433 9605264
-0.12791878 0.13667026 0.66790009 9671314
-0.13379568 0.13749808 0.66313636 9671058
-0.12630849 0.13759343 0.667 9539472
-0.1330716 0.13845909 0.662 9934486
-0.12450723 0.13850097 0.66668183 9473677
-0.11469295 0.13868901 0.668643 9276556
-0.10937213 0.13881586 0.66900003 9342606
-0.13205467 0.13941962 0.66072726 10197657
-0.12555023 0.13946876 0.66507697 9605261
-0.11429918 0.13947615 0.66718191 9408142
-0.10850227 0.1395569 0.66744441 9342606
-0.13022095 0.14033294 0.66050005 9934486
-0.12517264 0.14045537 0.66424996 9605260
-0.11513072 0.1405084 0.66636366 9605006
-0.1061824 0.1405541 0.66704357 9342349
-0.097778805 0.14082061 0.6680001 9210763
-0.12421364 0.1415078 0.66416669 9473931
-0.11575061 0.14148785 0.66552389 9605518
-0.10444584 0.14150743 0.66596001 9144969
-0.095460594 0.14151274 0.66750002 9473933
-0.089801542 0.14176992 0.66900003 9868946
-0.12406338 0.14256942 0.66286963 9539981
-0.11500153 0.14258814 0.66414791 9605776
-0.10526783 0.1425721 0.66426933 8882053
-0.095240518 0.14250678 0.66595995 9605520
-0.088693783 0.14250842 0.66900003 9737360
-0.12284065 0.14356601 0.66175002 9474188
-0.11562525 0.14362729 0.66260868 9539729
-0.10431716 0.14349711 0.66352946 9079177
-0.094175026 0.14344281 0.66500008 9736593
-0.086519636 0.14358406 0.66857892 9342345
-0.12180448 0.14430702 0.6603334 9671313
-0.11471315 0.14458968 0.66125917 9473936
-0.10501529 0.14442481 0.66247994 9079434
-0.095002763 0.14445467 0.66320699 9802130
-0.085540749 0.14456101 0.66764706 8947077
-0.078354597 0.14472397 0.66900003 7696754
-0.1116784 0.14542998 0.66079998 9079434
-0.10498807 0.14558513 0.66111118 9210763
-0.094957545 0.14548953 0.66121429 9933716
-0.085018493 0.14545321 0.66670376 8617342
-0.07730069 0.14563252 0.66820014 8091256
-0.10503174 0.14648327 0.66028565 9276813
-0.094012417 0.14641057 0.66042852 9868693
-0.085279115 0.1464676 0.66455168 8551550
-0.076154992 0.14654787 0.66766661 7893875
-0.10379643 0.14734276 0.65999997 9605521
-0.092964917 0.14714848 0.66000003 10066072
-0.084911294 0.14751203 0.66257137 8025206
-0.076661326 0.14747192 0.66631585 7499375
-0.084183566 0.14847177 0.6609565 8024948
-0.076243505 0.14853323 0.6656667 7433069
-0.082446054 0.1493277 0.660375 7893617
-0.075876348 0.1495178 0.66526318 5195338
-0.081429109 0.15030564 0.66000003 7498345
-0.075926051 0.15051679 0.66461903 3484206
-0.080579102 0.15151994 0.66000003 8089455
-0.075124256 0.151544 0.66472006 4142650
-0.074877113 0.15259631 0.66396153 5196365
-0.068010777 0.15258195 0.66855568 6644838
-0.074463658 0.15360351 0.66296005 6512482
-0.066955864 0.1535072 0.66705561 7763319
-0.074258462 0.15452509 0.66177785 6710374
-0.065357938 0.15450095 0.66611111 9078665
-0.073713005 0.15541409 0.66070592 6973802
-0.065268867 0.15547481 0.66457695 9342092
-0.056242641 0.15546004 0.6683684 9408138
-0.071161464 0.1563738 0.66050005 8354685
-0.065060757 0.15644509 0.66330785 9605006
-0.055350114 0.15643014 0.66695851 9341832
-0.049552605 0.15654017 0.66900003 8354426
-0.063893147 0.15739617 0.66278952 9802641
-0.055376206 0.15737039 0.6653077 9276295
-0.04727865 0.15745625 0.66818756 9276039
-0.063279107 0.15836781 0.66155553 9736849
-0.055150237 0.15840501 0.66396153 9210246
-0.04521165 0.15844272 0.6675601 8946817
-0.038844168 0.1587557 0.66899997 8814975
-0.061729033 0.15941094 0.66100007 9737105
-0.054897442 0.15944935 0.66280001 9144197
-0.044818148 0.15946467 0.6662693 8881281
-0.035125338 0.1597437 0.66850001 8881282
-0.02901377 0.15970807 0.66857147 8420476
-0.060725361 0.16044502 0.66000003 10000022
-0.054807227 0.16054291 0.66115636 9078147
-0.045083657 0.16054074 0.66458631 9078662
-0.034343548 0.16072324 0.66690016 8946819
-0.027099913 0.1606237 0.66821432 8552063
-0.052586857 0.16153361 0.66038454 8946819
-0.045114517 0.16161437 0.66316003 8946821
-0.035151485 0.16163407 0.66591322 8881281
-0.026136657 0.16156936 0.66705 8617856
-0.050707422 0.1624486 0.66000003 10131095
-0.04439396 0.16254462 0.66237503 8881028
-0.035377536 0.1625001 0.66440904 9012612
-0.025058558 0.16253288 0.66589278 8683393
-0.018521221 0.16269557 0.66850007 8815492
-0.044318207 0.16352805 0.66099995 8947078
-0.035175748 0.16342933 0.66250002 8947076
-0.0250571 0.16357397 0.66434628 8617856
-0.016393181 0.16361836 0.66760004 9210249
-0.042592648 0.16447425 0.6603334 8947591
-0.035071198 0.16440308 0.66053575 8881542
-0.024817495 0.16455229 0.66296005 8749442
-0.014965788 0.16459943 0.66649997 8947335
-0.0089344075 0.16466381 0.66900003 8947592
-0.030671541 0.16536291 0.66000003 7960183
-0.024295771 0.16548625 0.66170841 8815235
-0.014387527 0.16548415 0.66524994 9012616
-0.0072502824 0.16557142 0.66830784 8881800
-0.024712313 0.16646411 0.66034776 8749442
-0.015195918 0.16642842 0.66331995 9078409
-0.00535936 0.16652986 0.66772002 8947335
0.00029700075 0.16687934 0.66900003 8815235
-0.021895025 0.16744289 0.66022229 8684163
-0.01512712 0.16740909 0.66163999 8881030
-0.0056593688 0.16751905 0.66669995 8946821
0.0025125388 0.16761787 0.66900009 8486271
-0.013311221 0.16837788 0.66121429 9275787
-0.0051074266 0.16842255 0.66588002 8881028
0.0038107506 0.16853976 0.66833341 8354685
-0.012100343 0.16936257 0.6604445 8946821
-0.0052941674 0.16949156 0.66455561 8749444
0.0047785174 0.16953319 0.66723996 8486273
-0.010635657 0.17046295 0.66000003 8683651
-0.0049075265 0.17050923 0.66333342 8617859
0.0048123975 0.17047453 0.66600007 8486530
0.011005434 0.17057189 0.66900003 7499379
-0.0044819703 0.17150332 0.66179174 8617860
0.0046776808 0.17144933 0.66453582 8552067
0.012890824 0.17154889 0.66828579 7894905
-0.0033928719 0.17246971 0.6605556 8683653
0.0053807064 0.17252649 0.66336673 8486274
0.014658107 0.17254548 0.66651511 8289406
0.020606101 0.17278744 0.66900003 8487040
-0.0022570163 0.17337726 0.66000003 8683653
0.0060636052 0.17349355 0.66241175 8355458
0.015937706 0.17354096 0.66499984 8355456
0.021522824 0.17353041 0.66760004 8421248
0.0068281777 0.17441967 0.66150004 8618629
0.014928667 0.17447022 0.66276926 8553092
0.024076452 0.17448665 0.66692597 7894903
0.0083136512 0.17533116 0.66050005 9144973
0.014412669 0.1754047 0.66095656 8947593
0.025303191 0.1754948 0.66545165 8025977
0.030945275 0.17574149 0.66900003 8617856
0.017740672 0.1763594 0.66100001 8618629
0.024773732 0.17651254 0.66345841 8092027
0.032005794 0.17658472 0.6680001 8683650
0.017953726 0.17741826 0.6602307 8750216
0.025783444 0.17736457 0.66257906 8289406
0.034336925 0.17762706 0.66763645 8420992
0.019600309 0.1784773 0.66000003 8881802
0.024997132 0.17830482 0.66120005 8421249
0.034522612 0.17854273 0.66633338 8750214
0.041284453 0.17869556 0.66900003 8618626
0.026712703 0.17946742 0.6606667 8552579
0.035096537 0.17945927 0.66533327 8552834
0.043078054 0.17957912 0.6681667 8421247
0.027989965 0.18054904 0.66025001 8553090
0.034680683 0.18043448 0.66306067 8421249
0.045206834 0.18051495 0.66731995 8486783
0.051992886 0.18091108 0.66900003 8946821
0.03648217 0.18145072 0.66192001 8487298
0.044955026 0.18145931 0.66490322 8684162
0.052219342 0.18162611 0.66810006 9012871
0.037076119 0.18242925 0.66030765 8421506
0.045642044 0.18246615 0.66292602 8750470
0.053532839 0.18250959 0.66731578 8750214
0.039413348 0.18342684 0.6603334 8224127
0.044976931 0.18343189 0.66074079 8750469
0.054352582 0.18350539 0.66615397 8750470
0.060855042 0.18386513 0.66899997 9013386
0.049107701 0.18430595 0.66000003 8421505
0.055216234 0.18453169 0.66496158 9013386
0.062004551 0.18452199 0.66811115 8881800
0.055857185 0.18543686 0.66329169 9079179
0.064918004 0.18554124 0.66731232 9605522
0.070350386 0.18580253 0.66800004 9868693
0.056969255 0.18641768 0.66217649 9079436
0.065104149 0.18651946 0.66475868 9671315
0.072451472 0.18660356 0.66776472 9473678
0.058030818 0.18749397 0.66076934 9737108
0.064680606 0.18747576 0.66276002 9671314
0.074665971 0.18755092 0.66625935 9934229
0.058943495 0.18867739 0.66000003 10066072
0.065269157 0.18850444 0.66131258 9473935
0.075501084 0.18849148 0.66439998 10592157
0.081453323 0.1885753 0.66766667 11119270
0.066220656 0.18948855 0.66049999 9276556
0.075083926 0.18951409 0.66210717 10723743
0.08334709 0.18951446 0.667 10658464
0.067769811 0.19038191 0.66009998 9079177
0.074317649 0.19061325 0.66078264 10855586
0.084649622 0.19058606 0.66585714 10197657
0.090629131 0.19096439 0.66800004 8618628
0.069507867 0.19159169 0.66000003 10592416
0.075878911 0.19150659 0.66036832 11053222
0.08535827 0.19148618 0.66403705 9737107
0.092497312 0.19163962 0.66778564 9079179
0.078615084 0.19232029 0.66000003 10724002
0.085815422 0.19238558 0.66192865 9407630
0.093380138 0.19253476 0.6656667 9473681
0.086464114 0.19331309 0.66012496 9341582
0.095119379 0.19350106 0.66493106 9671316
0.10058416 0.19391403 0.66800004 10000279
0.095661089 0.19448364 0.66303557 9737108
0.10169838 0.19458595 0.66777778 10065558
0.096069127 0.19551501 0.66121054 9539729
0.10238424 0.19550084 0.66650003 9933973
0.098365396 0.19655381 0.6615001 9670801
0.1036099 0.19650383 0.66642863 9802387
0.098946042 0.19746196 0.66075003 9736337
0.10459683 0.19750495 0.66573906 9867923
0.11581071 0.19769697 0.66876465 9408138
0.1235944 0.19753666 0.66856247 9671567
0.099015266 0.19814889 0.66000003 9736848
0.10515571 0.19845268 0.6636765 9670543
0.11453394 0.19856067 0.66696888 9473420
0.12474803 0.19843224 0.66707695 10000532
0.1306445 0.19863538 0.66900003 10526623
0.1062357 0.19944328 0.66137922 9473420
0.11479004 0.19950661 0.66429049 9539469
0.12502028 0.19945773 0.66562968 10131861
0.13190691 0.19954774 0.66764295 10658209
0.10848677 0.20033464 0.66000003 9473675
0.11584473 0.20044103 0.66220009 9737103
0.12440972 0.20046082 0.66381478 10131861
0.13452861 0.20060162 0.6675263 10658465
0.11649078 0.20141177 0.66026312 9736845
0.12492956 0.20154659 0.66315001 10131861
0.13465326 0.20151879 0.66612506 10658464
0.14098367 0.20158944 0.66900003 10592416
0.11941543 0.20252036 0.66000003 9736588
0.12518688 0.20250446 0.66233343 10131862
0.13532998 0.20245798 0.66508341 10461340
0.14153729 0.20243189 0.66812503 10263961
0.12477271 0.2035381 0.66161907 10395036
0.13475718 0.2034834 0.66329998 10461084
0.14337645 0.20350821 0.66786665 10000532
0.12643495 0.20445271 0.66168755 10724001
0.13501127 0.20445408 0.66163999 10197914
0.1444246 0.20456991 0.66650009 9671824
0.15183407 0.20497514 0.66800004 9276809
0.12678653 0.20524865 0.66044444 10527135
0.13610417 0.20534024 0.66068417 10132122
0.14583364 0.20558392 0.66485286 9408395
0.15414137 0.20556833 0.66744012 9342602
0.13803641 0.20622571 0.66020006 10131865
0.14459573 0.20657557 0.66160607 9342605
0.15496098 0.20650962 0.6655162 9474445
0.16143504 0.20635419 0.66871434 10263448
0.1475096 0.20744249 0.66042852 8947592
0.15471704 0.20751217 0.6631999 9342603
0.16178975 0.20755586 0.6680001 10000533
0.14965139 0.20834899 0.66000003 9210763
0.1558743 0.20851451 0.6626364 9737104
0.164483 0.20864432 0.66794449 9671569
0.17089343 0.20897456 0.66899997 11382441
0.15534729 0.20939936 0.66088241 9803154
0.16454467 0.20954843 0.66660005 9671568
0.17344628 0.2096739 0.6688751 11053477
0.15843996 0.21030085 0.66110003 9868690
0.16502334 0.21052687 0.66480654 10066069
0.17452188 0.21060209 0.66774207 11316647
0.18117474 0.21073347 0.66833335 11514026
0.15985149 0.21126328 0.66000003 9408395
0.16536652 0.21149842 0.6625517 10657948
0.1754701 0.21153054 0.66613042 11514026
0.18411604 0.21152724 0.66820014 11316647
0.16704501 0.21252777 0.66184622 11381927
0.17495139 0.2125894 0.66496426 11513770
0.18356319 0.21248196 0.66660863 11447977
0.16814627 0.21343958 0.66110003 11316391
0.17567295 0.21349914 0.66345841 11514284
0.185133 0.21347392 0.66591311 11119267
0.19009477 0.21340565 0.66900003 11579046
0.16879144 0.21453393 0.66020006 11316390
0.17461844 0.21448126 0.66182148 11514540
0.18468964 0.21453202 0.66458338 11053218
0.19385199 0.21467853 0.66885716 10986912
0.17564887 0.21543331 0.66050011 11514027
0.18454562 0.2155422 0.66308331 10855839
0.19421126 0.21549107 0.66805887 11315620
0.17915878 0.21636334 0.66000003 11185061
0.18599455 0.2164655 0.66276187 10789789
0.19501486 0.21650085 0.6659556 11381927
0.18679474 0.21742016 0.66100001 10855582
0.19488342 0.21753056 0.66296154 11184804
0.19557066 0.21831998 0.66113055 11184805
0.19887459 0.21934414 0.66075003 11119011
0.19992325 0.22000621 0.66000003 10987425
-0.083854027 -0.012177067 0.67892849 9280938
-0.075151652 -0.012369432 0.67848158 13100025
-0.068657316 -0.012017715 0.67900008 13496319
-0.084722273 -0.011261248 0.67858332 7305860
-0.074830756 -0.01123853 0.67721432 13100280
-0.067847103 -0.011258207 0.67840004 13693695
-0.084309414 -0.010507345 0.67827266 6318195
-0.075070642 -0.010472139 0.67600006 12902901
-0.068130873 -0.010495375 0.67750001 13364477
-0.084517881 -0.009521543 0.6780625 5725540
-0.074959584 -0.0097115105 0.67500007 12573422
-0.067145266 -0.0095770387 0.67722225 13232891
-0.082472056 -0.0084882537 0.67650008 5462369
-0.074746922 -0.0085695758 0.67307699 11454426
-0.067299172 -0.0085310284 0.67593342 13232635
-0.083001085 -0.0074954848 0.67675006 5856866
-0.074601829 -0.0074403188 0.6717692 10203329
-0.065766811 -0.0074908701 0.67633337 12771572
-0.08333794 -0.0065467875 0.67699999 5790815
-0.074594565 -0.0066979821 0.67169231 9413296
-0.064274602 -0.0066102259 0.67611772 8362160
-0.058096595 -0.0062642545 0.67822224 3293534
-0.082117498 -0.0055187102 0.67590916 5725278
-0.07453604 -0.0055812364 0.67115378 8096151
-0.065269493 -0.0055588391 0.67380005 7967401
-0.056129057 -0.0052569974 0.67710006 3293271
-0.082605295 -0.0045060231 0.67657143 5658970
-0.074917965 -0.0044705821 0.67125005 6581625
-0.06536071 -0.0044765281 0.6721428 5861254
-0.055281553 -0.0045017414 0.67592865 3030096
-0.049918525 -0.0045221979 0.67900002 3096656
-0.082475476 -0.0034162637 0.6769231 5658970
-0.075869508 -0.0036184317 0.67184615 5725540
-0.065259151 -0.0037285939 0.67107147 6387082
-0.054330673 -0.0035815628 0.67438883 2899020
-0.045138866 -0.003378096 0.67770374 7241618
-0.037891522 -0.003020423 0.67840004 8295846
-0.082303688 -0.0022674038 0.6771667 5593176
-0.075180925 -0.0025999725 0.67168421 5593951
-0.062485144 -0.0027383398 0.67041665 4939376
-0.055527743 -0.0025568735 0.67133325 3557463
-0.045120303 -0.0022586035 0.67453855 9543599
-0.037075128 -0.0022675898 0.67722225 8624298
-0.081981421 -0.0015208486 0.67760003 5593177
-0.076189861 -0.001509776 0.67266661 5593436
-0.052225988 -0.0015041113 0.67014283 2570308
-0.044970989 -0.00150897 0.67230767 11056067
-0.035543762 -0.0015186387 0.67661542 8623271
-0.081610054 -0.00039878499 0.677625 5593176
-0.076183759 -0.00039593349 0.67261124 5593434
-0.043418545 -0.00056747539 0.67046666 11977169
-0.035087664 -0.00039762567 0.67503566 9937845
-0.025305465 -0.00038460179 0.67828006 5005420
-0.017400727 -0.00016114961 0.67845452 3294544
-0.081280552 0.00072359695 0.67799997 5593176
-0.076598994 0.00071826071 0.67300004 5658970
-0.035001516 0.00071864191 0.67335719 10925253
-0.025086876 0.00072195503 0.67646158 4216421
-0.016156547 0.00072330592 0.67772728 3162958
-0.081280552 0.0014720447 0.67800003 5593176
-0.076613285 0.0014614604 0.67312509 5658970
-0.034585465 0.00146002 0.67246157 10596806
-0.025037697 0.0014658653 0.67515385 3755617
-0.01538635 0.0014695397 0.67684615 2965066
-0.081280552 0.0025947164 0.67799997 5592663
-0.076627724 0.0025765384 0.67325008 5658713
-0.033447929 0.0025312721 0.67115003 10664143
-0.024970889 0.0025766718 0.67338461 5005942
-0.014979015 0.0025842872 0.67535722 3031116
-0.0085618533 0.0027212792 0.6785 2701638
-0.080905594 0.0037173883 0.67800003 5526614
-0.076291889 0.0036930202 0.67355561 5723993
-0.030026834 0.0036735253 0.67000002 14285823
-0.024539189 0.0036831202 0.67175001 6256523
-0.014944704 0.0036942821 0.67378575 3030859
-0.0060578296 0.0037173885 0.67800003 2767686
-0.080965534 0.0044691293 0.67850006 5987165
-0.076317437 0.0044380249 0.67377782 5723993
-0.023410834 0.0044211927 0.67122227 5597825
-0.014918953 0.0044305497 0.67264283 3096652
-0.0049291556 0.004461783 0.67738467 2636100
0.0010509919 0.0044724229 0.67900008 2570562
-0.080965534 0.0055926288 0.67850006 5263442
-0.075988963 0.0055568563 0.67415005 5723993
-0.022238923 0.0054245065 0.67036366 4676723
-0.01489217 0.005534105 0.67142856 2899275
-0.0049165832 0.005569824 0.67576915 2701893
0.0022369162 0.005655 0.6785 2570562
-0.081024915 0.0067210784 0.67900002 4605512
-0.075652078 0.0066760858 0.67445463 5658200
-0.014619354 0.0066380831 0.67061543 3030861
-0.0049062017 0.0066753924 0.67438465 2767686
0.0032962102 0.0067100804 0.67788887 2570562
-0.080650143 0.0074706296 0.67900002 5263442
-0.075672261 0.007422619 0.67463642 5329235
-0.012651887 0.0073757335 0.67037499 3096397
-0.0049012448 0.0074122329 0.67369235 2767942
0.0040432941 0.007453626 0.67745453 2570562
-0.080650143 0.0082201809 0.67900002 5526614
-0.075515091 0.0085599003 0.67495662 5131856
-0.011611882 0.008408281 0.67010003 2899531
-0.0048928829 0.0085129524 0.6725384 2636356
0.0047850562 0.0085625267 0.67646146 2504769
0.01200496 0.0088694338 0.6785 2767941
-0.074918143 0.0096555213 0.67454547 5000270
-0.010426994 0.0095904581 0.67000002 2505030
-0.0048853704 0.0096102785 0.67138469 2767686
0.0047738268 0.0096631302 0.6750769 2504512
0.014145422 0.0097013926 0.67774993 2570562
-0.074928336 0.010401558 0.67463642 5066063
-0.0045128758 0.010344208 0.67091674 2833478
0.0051393248 0.010392849 0.67407143 2504256
0.015234266 0.01042614 0.67623085 2504512
0.020914113 0.010468837 0.67900002 2504769
-0.074963972 0.011524168 0.67495459 4934478
-0.06996613 0.011809307 0.67000002 5658200
-0.0028732228 0.011342258 0.67049998 2833477
0.0051272893 0.011482499 0.67253572 2635841
0.015189325 0.011512035 0.67426932 2504512
0.022072306 0.011645648 0.67769998 2636355
-0.074583247 0.0126407 0.6749 4671306
-0.06996613 0.012548924 0.67000002 4802893
-0.00081198016 0.012548924 0.67000002 3030600
0.0051119723 0.012562303 0.67071426 2701635
0.015142872 0.012589266 0.67215389 2570049
0.023097575 0.012680032 0.67700005 2636099
-0.074183002 0.013380497 0.67463642 4408648
-0.069226511 0.013288541 0.67000002 5329237
0.0065841852 0.013288541 0.67000002 2635842
0.015119755 0.013311427 0.6711539 2570049
0.02382897 0.01341746 0.67650008 2701635
-0.073848449 0.014505523 0.67500007 4606027
-0.068676144 0.014480522 0.67040002 4211269
0.016776491 0.014322801 0.67081249 2635842
0.024739554 0.014533055 0.67560011 2701891
0.030283509 0.014966147 0.67900002 3096906
-0.073914073 0.015637005 0.67559999 4605769
-0.068555407 0.01552282 0.67066669 5724763
0.018432347 0.015518962 0.67050004 2635842
0.02486648 0.015605312 0.67423069 2767428
0.030988092 0.015692553 0.67799997 2570567
-0.073534921 0.016381724 0.67555553 5000269
-0.067956969 0.016409479 0.67060006 5395283
0.018787859 0.016247006 0.67000002 2767941
0.024265148 0.016410289 0.67266661 2636356
0.031718627 0.016431302 0.67760003 4545126
-0.07319548 0.017508693 0.67587501 5658198
-0.068127126 0.017474789 0.671 4079423
0.025502153 0.017393712 0.67145443 3096908
0.033435699 0.01758145 0.67642111 10005172
-0.072835825 0.018631222 0.67600006 5658711
-0.067870386 0.018498931 0.6712001 3882300
0.027675841 0.018473731 0.67028576 7241609
0.03498248 0.018617444 0.67549998 9478316
0.040027682 0.018713905 0.67900002 9149608
-0.072911993 0.019397939 0.67671436 5724761
-0.067294508 0.019511631 0.67100006 4606280
0.029512299 0.019205473 0.67000002 9412773
0.034467869 0.0194808 0.67352945 9017764
0.040777232 0.019463457 0.67900002 8950432
-0.072720356 0.020484319 0.67653853 5593175
-0.067951351 0.020498933 0.67199999 5527382
0.036363102 0.020477626 0.67415011 8623006
0.040777232 0.020587783 0.67900002 7897739
-0.072532512 0.021637499 0.67666674 5593175
-0.067196555 0.021483708 0.67185718 5395796
0.036355104 0.021529846 0.67330003 8687511
-0.072550468 0.022389991 0.67683333 5593175
-0.066745684 0.022445703 0.67180002 5724761
0.036328979 0.022442849 0.67283338 8621202
-0.072594903 0.023525251 0.67725009 5658968
-0.067435749 0.023501026 0.67300004 5593175
0.037188087 0.023526 0.67436367 8423308
0.040027682 0.023211217 0.67900002 8291721
-0.07225734 0.024659371 0.67760003 5724761
-0.066953428 0.024496516 0.67312497 5593175
0.036771368 0.02453356 0.67414284 9278617
-0.072299764 0.025422376 0.67799997 5724761
-0.066421188 0.025472609 0.67275 5593175
0.035969935 0.025486212 0.6731112 9542044
-0.071809851 0.026508441 0.67842853 5723991
-0.067257509 0.026537035 0.67415392 5461590
0.036858413 0.026581924 0.67577779 8028803
-0.071228534 0.027688123 0.67850006 5789784
-0.066659562 0.027499951 0.67388892 5658713
0.036461912 0.0275589 0.67533332 7830657
-0.071228534 0.028437123 0.67850006 5855579
-0.065828539 0.028503191 0.6730001 5790043
0.036044862 0.02845493 0.67449999 7699071
-0.070993446 0.029631108 0.67840004 5855579
-0.066743426 0.029513676 0.67415392 5790043
0.037025996 0.029569006 0.67636371 7830912
-0.071228817 0.030684121 0.67850006 5789786
-0.065871447 0.030455492 0.67344451 5724506
0.036855649 0.030558141 0.67571431 7896704
-0.071228817 0.03143312 0.67850006 5724763
-0.064875424 0.031444851 0.67274994 5658970
0.036391631 0.031425528 0.67477775 7962754
-0.071060769 0.032606732 0.67842859 5724763
-0.066220008 0.032513447 0.67428577 5658970
0.037190583 0.032506477 0.67616671 7765375
-0.07083673 0.033671845 0.67833334 5790556
-0.065207429 0.03350142 0.67354548 5658970
0.036034185 0.033576585 0.67428577 7830911
-0.070479535 0.034429118 0.67850006 5724761
-0.065149337 0.034480814 0.67366672 5593175
0.035800528 0.034502693 0.67410004 7830911
-0.070406266 0.03545389 0.67900008 5264210
-0.065970525 0.035538971 0.67493337 5658968
0.036361899 0.035533495 0.67577773 7765118
-0.06491702 0.036517031 0.67441672 5527382
0.034898456 0.03651857 0.67387503 7896961
-0.064130045 0.037466284 0.67386663 5593175
0.034033962 0.037489127 0.67354542 7896960
-0.06483651 0.038529139 0.67535722 5526869
0.034177914 0.038518321 0.67500001 7830911
-0.063388988 0.039477225 0.67390001 5658455
-0.05936496 0.039668199 0.67000002 5724761
0.029882107 0.039544925 0.67000002 7962496
0.033458855 0.039460167 0.67487502 7830911
-0.063400805 0.040470853 0.67453849 5592405
-0.058901537 0.040674578 0.67033339 5526869
0.029534599 0.040684693 0.67050004 8027518
0.0326382 0.040429857 0.6749 7962238
-0.06423182 0.041499916 0.67575002 5658199
-0.058901537 0.041414563 0.67033339 5723991
0.02879443 0.041424863 0.67050004 8159104
0.033084314 0.041509554 0.67627275 8093311
-0.063414581 0.042448018 0.67500001 5723992
-0.058546282 0.042535111 0.67050004 5592405
0.027993238 0.042479962 0.67080003 8027518
0.032399375 0.042519886 0.67614281 8093311
-0.062911987 0.043429844 0.67423069 5855578
-0.058546282 0.043645367 0.67050004 5197648
0.02837944 0.043517247 0.6723333 8027518
0.03176548 0.043381874 0.67628574 8093311
-0.064449489 0.04451441 0.67592311 5789786
-0.058546286 0.044385534 0.67050004 5460821
0.027756741 0.044498071 0.67220002 7961981
0.03209753 0.044488046 0.67769998 7961725
-0.06307321 0.045473594 0.67444444 5921371
-0.058557406 0.045504339 0.67062503 5789786
0.027430747 0.045438137 0.67200005 7830909
0.031351257 0.045613643 0.67775005 7896445
-0.063255034 0.04650674 0.67484611 5658199
-0.058202781 0.046626892 0.67080003 5921372
0.028089125 0.046535559 0.6735 7961982
0.030988092 0.046378911 0.67800003 7896445
-0.063705593 0.047560293 0.6758889 5855577
-0.058220357 0.047381517 0.67100006 6052956
0.027798694 0.047536869 0.67320001 7830909
0.030624835 0.047519237 0.67824996 7961725
-0.063134708 0.04848082 0.67600006 5855577
-0.057736322 0.048459288 0.67111111 5723991
0.027218446 0.048516545 0.67262501 8027518
0.03023891 0.048624255 0.67800003 8093311
-0.062386505 0.049475685 0.676 5789784
-0.058340542 0.049519595 0.67237496 5855577
0.027635945 0.049527407 0.67374998 7961725
0.030283509 0.049445525 0.67900002 8093311
-0.06273865 0.050553426 0.67711121 5921370
-0.057167452 0.050394416 0.67166668 5855320
0.027745649 0.050494723 0.67442858 7961725
0.030283509 0.050195079 0.67900002 8093311
-0.062120438 0.051554602 0.6771667 5789784
-0.056690179 0.051498149 0.67199999 5921113
0.026811492 0.051501211 0.6732223 7764346
-0.061496731 0.052426506 0.6771667 5789783
-0.057323124 0.052557774 0.67300004 5855320
0.026068442 0.0524919 0.6732223 7895932
-0.061798625 0.053469308 0.67774999 5855574
-0.056196332 0.053495388 0.67233342 5789784
0.02579272 0.053482603 0.67399997 7961725
-0.061446778 0.054611843 0.67799997 5789781
-0.055947687 0.054484356 0.67258328 5855320
0.024640029 0.054522589 0.67354542 7895932
-0.061446778 0.055360287 0.67800003 5724245
-0.056265555 0.055503879 0.67346156 5789783
0.024559531 0.055519238 0.67488885 7895932
-0.39157 0.05654531 0.67874998 8289142
-0.3884294 0.056618039 0.6785 7960947
-0.06148069 0.056514278 0.67837501 5855830
-0.055607971 0.056500629 0.67307693 5855831
0.023998085 0.056467235 0.67533338 7830137
-0.39226073 0.057605632 0.67799997 8355448
-0.38789663 0.057569213 0.67757142 7763568
-0.061132144 0.057662275 0.67866665 5987163
-0.055548016 0.057472322 0.67307699 5921369
0.022370605 0.057494044 0.67377782 7895932
-0.39634097 0.058508225 0.67762494 7961462
-0.38737532 0.058564544 0.67640007 7632239
-0.060742538 0.058397114 0.67850006 4539717
-0.056133565 0.058460116 0.67392319 5855833
0.019527474 0.058405153 0.67000002 8093311
0.022333551 0.05850843 0.67485714 7895932
-0.39560008 0.059435248 0.67668015 8026999
-0.386013 0.059551869 0.67642868 7698032
-0.06041225 0.059564471 0.67900002 4473924
-0.055717744 0.059499074 0.67346668 5460818
0.019053459 0.059450522 0.67066669 7632760
0.022483623 0.059473034 0.67614299 7895931
-0.39650762 0.060507979 0.6742084 8027000
-0.3854948 0.060599171 0.67536843 7632241
-0.05573203 0.060520839 0.67366672 5197647
0.019029949 0.060619514 0.67200005 7961725
0.021554204 0.060375974 0.67550004 7961725
-0.39457852 0.061485946 0.67415386 7764084
-0.38414344 0.061520234 0.67504543 7632241
-0.055684321 0.061442614 0.67400002 5197647
0.018495992 0.061615482 0.67275006 8027518
0.021016935 0.061376087 0.67625004 8027518
-0.39603713 0.062506936 0.6717999 7829877
-0.38418561 0.062361922 0.67386657 7829107
-0.3787424 0.062564388 0.67746162 8354682
-0.054990984 0.062491454 0.67366672 5329233
0.017880971 0.062489316 0.67283338 7896187
0.021018505 0.062626176 0.67833334 7961724
-0.39428702 0.06345211 0.67134792 7633011
-0.38476804 0.063369833 0.6718148 7763827
-0.37759179 0.063585244 0.67500007 8158071
-0.054691669 0.063538685 0.67376924 5197647
0.017739097 0.063549355 0.6741429 7896444
-0.3934719 0.064348266 0.67027277 7632496
-0.38481775 0.064346083 0.67025 7632496
-0.37566471 0.064465374 0.67491996 7960691
-0.368478 0.064436562 0.67900002 8026742
-0.054690454 0.064512983 0.67458338 5395281
-0.04999648 0.064322084 0.67000002 5460819
0.017211806 0.064520001 0.67428577 7830908
-0.38911068 0.065061703 0.67000002 7238253
-0.37396216 0.065487802 0.67467868 7829362
-0.36852372 0.065580957 0.67877775 8092535
-0.054177284 0.065493755 0.6744616 5329233
-0.04999648 0.065431505 0.67000002 4210495
0.016406938 0.065538228 0.67322224 7830908
-0.37300617 0.066521309 0.67450005 7961204
-0.3679218 0.066652477 0.67866665 7829365
-0.053553 0.066536084 0.67433333 5460562
-0.049256869 0.066540934 0.67000002 4605253
0.016349783 0.066604182 0.67385715 7830909
-0.37183431 0.067469209 0.67494118 7961204
-0.36560404 0.067407683 0.67872721 7960694
-0.053447299 0.067503572 0.67519999 5263439
-0.049256869 0.067280553 0.67000002 5526355
0.016119204 0.067507803 0.67412502 7830652
-0.3711907 0.068430625 0.67283338 7961205
-0.36576149 0.068516701 0.67844462 7895415
-0.35543546 0.068501145 0.67842877 8092280
-0.34702572 0.068795122 0.67876923 8091766
-0.05294909 0.068502925 0.67550004 5395026
-0.048694581 0.068504766 0.67040002 4868682
0.015236338 0.068461731 0.67290008 7765116
-0.37030929 0.069343202 0.6728 7960949
-0.36642662 0.069583796 0.67712504 7961207
-0.35494804 0.069456168 0.67678577 8092535
-0.34521466 0.069602787 0.67821425 7894387
-0.3388707 0.069683425 0.67900002 8091512
-0.052471843 0.069522932 0.67562509 5197644
-0.048202306 0.069577202 0.67075002 4276545
0.015170755 0.069476791 0.67337507 7830908
-0.37003297 0.070018053 0.67500001 7895156
-0.3660709 0.070494339 0.67600006 8092536
-0.35485807 0.070410579 0.6751923 7960949
-0.3453162 0.070546411 0.67662066 8025973
-0.33760348 0.070403337 0.67871428 8289146
-0.052331641 0.070520565 0.6762501 5724244
-0.047311716 0.070540197 0.67085713 5197645
0.01518154 0.070487365 0.67379999 7830908
-0.36632055 0.071496584 0.67489994 8223611
-0.35486263 0.071379676 0.67378569 7894900
-0.3443839 0.071428016 0.67512506 8091510
-0.33622679 0.071536131 0.67820841 8157560
-0.052265029 0.071595453 0.67699999 5987159
-0.047524948 0.071520999 0.67162502 4605507
0.014686321 0.071542472 0.67377782 7765116
-0.36432722 0.072454326 0.67340928 8223611
-0.35490784 0.072352603 0.67246157 7763570
-0.3447369 0.072399728 0.67290014 8091766
-0.33591753 0.072618954 0.67731583 8091769
-0.32875177 0.072681628 0.67900008 9605780
-0.051641785 0.072467543 0.67700005 5855573
-0.047625802 0.07255701 0.67244446 5526608
0.014444167 0.072530851 0.67412502 7699322
-0.36310339 0.073544167 0.67091674 8091768
-0.35480645 0.073555715 0.67045832 7763571
-0.34473932 0.073516846 0.67066664 7960180
-0.33616376 0.073457599 0.67661911 8091513
-0.3256419 0.073406227 0.67876917 9803159
-0.051404644 0.07348185 0.6771667 5855573
-0.046895746 0.073494785 0.67187506 5197644
0.013315652 0.073567271 0.67340004 7633530
-0.36228478 0.074047446 0.671 7894903
-0.34096551 0.07427559 0.67083335 7697008
-0.33544332 0.074473463 0.67600006 8354684
-0.32484916 0.074378699 0.67751855 9540244
-0.31818035 0.074607559 0.67854542 10330272
-0.051776715 0.074498259 0.6778 5789780
-0.046655774 0.074442945 0.67189997 5855574
0.0099124601 0.074676715 0.67000002 7830139
0.013336564 0.074525312 0.67450005 7764859
-0.33583701 0.075510457 0.67451859 8420476
-0.32421774 0.07563398 0.67539138 8948621
-0.31750444 0.075585455 0.67754549 9738647
-0.051292155 0.075494073 0.67733335 5789780
-0.04737632 0.075506091 0.67300004 5855319
0.009550049 0.075472608 0.67050004 7699323
0.012531091 0.075472787 0.67428577 7699066
-0.33466899 0.076452546 0.67370826 8223353
-0.32558122 0.076579317 0.67459995 8289662
-0.31623149 0.076493986 0.67686361 9738391
-0.051404644 0.076471955 0.6771667 5920853
-0.045829497 0.076507427 0.67190915 5855576
0.0088138552 0.076426104 0.67075002 7633530
0.012674856 0.076549813 0.67628574 7764859
-0.33370435 0.077538915 0.67237496 8092024
-0.32504213 0.077653736 0.67324007 8026488
-0.31486744 0.077482603 0.67628568 9672342
-0.30786234 0.07772366 0.67866665 10198685
-0.051954094 0.07754492 0.67783338 6052182
-0.045973301 0.077517048 0.67239994 5657941
0.0085620414 0.077515893 0.67171431 7567737
0.012264105 0.077572003 0.67720002 7699323
-0.33296922 0.078478783 0.6708889 7894133
-0.32499164 0.078608751 0.67199999 7894900
-0.31541029 0.078531273 0.67479163 9540497
-0.30698007 0.078573748 0.67809999 10132892
-0.051679373 0.078504235 0.67750001 6117975
-0.046406034 0.078566134 0.67300004 5855063
0.00772544 0.078552432 0.67242861 7764860
0.011511448 0.078446299 0.67700005 7699323
-0.33165327 0.079305016 0.67022228 7959927
-0.32585961 0.079513699 0.67149991 7894901
-0.31397226 0.079448417 0.67433339 9606291
-0.3063255 0.079501852 0.67740011 10067100
-0.051447261 0.079389893 0.67740005 6117975
-0.045089837 0.079551391 0.67235714 5920856
0.0067065875 0.079502068 0.67250001 8093052
0.01092052 0.079389907 0.67739999 7765116
-0.33031118 0.080593646 0.67000002 8025719
-0.32435843 0.080455057 0.67126077 7565935
-0.31523752 0.080517717 0.67267865 9079692
-0.30432472 0.08046414 0.67730451 9408914
-0.29673713 0.080613077 0.67858833 9474702
-0.051729485 0.080452964 0.67816669 6117975
-0.045602255 0.080505811 0.67307693 5920856
0.006499365 0.080511585 0.67344451 7763831
0.010412439 0.080492884 0.67850006 8028030
-0.32510868 0.08141996 0.67071432 7631471
-0.31443238 0.08149565 0.67205876 8816778
-0.30610427 0.081489623 0.67556524 9540500
-0.29540199 0.08157447 0.67815393 9540238
-0.051005542 0.081616104 0.67850006 5921366
-0.045996208 0.081499264 0.67399997 5921110
0.0066330992 0.081506416 0.67449999 7763832
-0.3248845 0.082473338 0.67025 7763057
-0.31515917 0.082524411 0.67086661 8289920
-0.30430824 0.08246655 0.67549998 9474449
-0.29514706 0.082508892 0.67684609 9342602
-0.051005542 0.082365111 0.67850006 6250078
-0.045201663 0.082511202 0.67358828 5921366
0.0059662955 0.082461402 0.67440003 6908523
-0.32439423 0.083552115 0.67000002 7763313
-0.3142122 0.083535917 0.67026675 7631989
-0.30608216 0.083478987 0.67330438 9539984
-0.29418078 0.08346846 0.67626321 9276809
-0.28977507 0.083550125 0.67900002 8816001
-0.050668076 0.083175354 0.67900002 5986906
-0.045562189 0.083536945 0.6742667 5987161
0.0055894577 0.08346273 0.67472732 7435124
-0.32538038 0.084291734 0.67000002 7894643
-0.31145093 0.084291734 0.67000002 9013387
-0.30441111 0.084447987 0.67304355 9671568
-0.29488444 0.084504992 0.67496538 9276552
-0.28918689 0.084612101 0.67850006 8815488
-0.045492668 0.084466465 0.67435706 5723988
0.0047738575 0.084471837 0.67440003 7172209
-0.30523434 0.085428424 0.67127281 9671569
-0.29456109 0.085436836 0.67356247 9145221
-0.28620535 0.08548452 0.67778569 9078660
-0.044612203 0.085451193 0.67368752 4802885
0.0040290621 0.085422754 0.67400002 6119264
-0.30234793 0.086364321 0.67107689 9539984
-0.29469082 0.086388253 0.67182755 8882309
-0.28564158 0.086436845 0.67737043 9210759
-0.27667883 0.086524159 0.67783338 8749695
-0.045034323 0.086477019 0.67443752 4868679
0.0040344819 0.086514048 0.67492306 6842987
-0.30183592 0.087250195 0.67000002 9671571
-0.29440746 0.087360196 0.67017651 9013897
-0.28543875 0.087540999 0.6748929 9145480
-0.27574167 0.087515891 0.67562503 8617853
-0.044452071 0.087472007 0.67399997 4605508
-0.03964185 0.087620005 0.67000002 6513503
-0.00044217191 0.087989815 0.67000002 7632241
0.0032832988 0.087463088 0.67450011 7041134
-0.29006451 0.088121139 0.671 9079687
-0.2856825 0.088570908 0.67221731 9013894
-0.27455792 0.088553138 0.67430013 8552318
-0.26916242 0.088422216 0.67900002 9276039
-0.04456751 0.088477857 0.67443746 4802885
-0.03927204 0.088729434 0.67000002 6513760
-0.00044283186 0.08886186 0.671 8290688
0.0032267626 0.088513695 0.67541671 7172464
-0.28430045 0.089458793 0.67177784 8749953
-0.27437249 0.089541748 0.67266679 8552319
-0.26614329 0.089574948 0.67800003 9407882
-0.25591955 0.089727275 0.67866665 8814974
-0.04507314 0.089457303 0.67513329 5526351
-0.038921956 0.089513563 0.67033339 6119002
-0.00081231014 0.089535818 0.67050004 5658970
0.0032091695 0.089567564 0.67633337 6777706
-0.28352994 0.090588585 0.6703499 8947076
-0.27509376 0.090503059 0.67166674 8815234
-0.26591077 0.090496145 0.67583346 9342090
-0.25457183 0.090546861 0.6780715 8880767
-0.24929927 0.090670876 0.67900002 9143938
-0.044347771 0.090459161 0.67484611 4604992
-0.038065407 0.090544872 0.67014295 5592403
-0.0011828163 0.090589844 0.671 3224630
0.0023566014 0.090473101 0.67612505 6185825
-0.2741271 0.091520406 0.67116004 8749439
-0.26444408 0.091431491 0.67470831 9210247
-0.25491574 0.09144564 0.67651838 9012096
-0.24865566 0.091558203 0.67725003 9538696
-0.044311944 0.091423042 0.67533332 3618097
-0.038206439 0.09160535 0.67075002 4408389
-0.0014800157 0.091609903 0.67160004 7106160
0.0021172015 0.091451719 0.67685717 6843756
-0.27361891 0.092515297 0.67063642 8683646
-0.26472953 0.092473142 0.67292607 9144711
-0.25588122 0.092567965 0.67461908 8880254
-0.24720168 0.092466481 0.67718184 9472903
-0.0436938 0.092473373 0.67535722 4342076
-0.037481062 0.092565469 0.671 3092532
-0.0015550136 0.092551902 0.67225003 6382180
0.0019235892 0.092487395 0.67766666 6909037
-0.27322692 0.093518607 0.67039996 8617853
-0.26478902 0.09340553 0.67171431 8947333
-0.25410929 0.093506478 0.67430449 9209220
-0.2475425 0.093492098 0.67591673 9275525
-0.043644685 0.093525469 0.67580003 3749682
-0.036661237 0.093440205 0.67089999 4079426
-0.0022950349 0.093467504 0.67216665 5263699
0.0010500321 0.093485147 0.67766666 6053217
-0.2717694 0.094446532 0.67033339 9012868
-0.26483628 0.094402052 0.67089266 9012867
-0.25541279 0.094523259 0.67241663 9275013
-0.24657667 0.094459571 0.67616671 9209732
-0.043526344 0.094490707 0.67630005 4671040
-0.036763247 0.094475567 0.6714167 4474184
-0.0022049076 0.094454169 0.67325002 5987422
0.00067577214 0.094279572 0.67800003 5987167
-0.2711418 0.095385976 0.67000002 9078660
-0.26485509 0.095385984 0.67000002 9012354
-0.2537525 0.095453456 0.67213637 9275526
-0.24594855 0.095408052 0.67661542 9407111
-0.04363741 0.095484458 0.67711115 6118998
-0.037034407 0.095521085 0.67215389 5395025
-0.0026709479 0.095547006 0.67375004 7040110
0.00030121824 0.095472872 0.67850006 5658202
-0.26263621 0.096125595 0.67000002 8486267
-0.25361216 0.096381068 0.67117643 9407369
